# .PCD v0.7 - Point Cloud Data file format
VERSION 0.7
FIELDS x y z
SIZE 4 4 4
TYPE F F F
COUNT 1 1 1
WIDTH 1491
HEIGHT 1
VIEWPOINT 0 0 0 1 0 0 0
POINTS 1491
DATA ascii
0.0541282 0.49985 -0.16186599
0.049893402 0.50844401 -0.16186599
-0.022226499 0.51190603 -0.16186599
-0.019799899 0.51703799 -0.16186599
-0.0145705 0.52563101 -0.16186599
-0.0136328 0.52702099 -0.16186599
-0.0084569203 0.53422499 -0.16186599
-0.0050390102 0.53894299 -0.16186599
-0.0021227 0.54281902 -0.16186599
0.0465235 0.52310503 -0.16186599
0.046239398 0.52563101 -0.16186599
0.047460001 0.51703799 -0.16186599
0.045521099 0.53422499 -0.16186599
0.0454868 0.54281902 -0.16186599
0.00355473 0.549972 -0.16186599
0.00473976 0.551413 -0.16186599
0.011828 0.56000602 -0.16186599
0.0121485 0.56041998 -0.16186599
0.0187969 0.5686 -0.16186599
0.0207422 0.57072997 -0.16186599
0.026740801 0.57719398 -0.16186599
0.0465235 0.55121899 -0.16186599
0.046560399 0.551413 -0.16186599
0.048532698 0.56000602 -0.16186599
0.050600398 0.5686 -0.16186599
0.050713699 0.57719398 -0.16186599
0.029336 0.57986301 -0.16186599
0.037929699 0.585356 -0.16186599
0.0465235 0.58424401 -0.16186599
0.072304703 0.132935 -0.16186599
0.080898501 0.13363101 -0.16186599
0.089492299 0.13394 -0.16186599
0.098085999 0.133343 -0.16186599
0.10668 0.133084 -0.16186599
0.115273 0.133182 -0.16186599
0.123867 0.133798 -0.16186599
0.132461 0.134249 -0.16186599
0.141055 0.13456801 -0.16186599
0.149648 0.136613 -0.16186599
0.156406 0.13891301 -0.16186599
0.158242 0.139616 -0.16186599
0.16683599 0.14298099 -0.16186599
0.17543 0.14522 -0.16186599
0.18402299 0.146699 -0.16186599
0.192617 0.14750201 -0.16186599
0.20121101 0.147449 -0.16186599
0.25277299 0.128076 -0.16186599
0.248702 0.130319 -0.16186599
0.269961 0.116776 -0.16186599
0.26339 0.121725 -0.16186599
0.26136699 0.123028 -0.16186599
0.209805 0.146428 -0.16186599
0.218399 0.144031 -0.16186599
0.235586 0.13699199 -0.16186599
0.231438 0.13891301 -0.16186599
0.226992 0.140696 -0.16186599
0.24417999 0.13270199 -0.16186599
0.287148 0.098613903 -0.16186599
0.28249499 0.104538 -0.16186599
0.27855501 0.109495 -0.16186599
0.27454701 0.113131 -0.16186599
0.072304703 0.435637 -0.16186599
0.080898501 0.43550801 -0.16186599
0.089492299 0.43724501 -0.16186599
0.094703503 0.43969399 -0.16186599
0.098085999 0.44277599 -0.16186599
0.098085999 0.463572 -0.16186599
0.096007802 0.46547499 -0.16186599
0.089492299 0.470018 -0.16186599
0.082485698 0.474069 -0.16186599
0.101574 0.44828799 -0.16186599
0.102269 0.456882 -0.16186599
0.072304703 0.480313 -0.16186599
0.069130503 0.48266301 -0.16186599
0.080898501 0.47488999 -0.16186599
-0.125352 -0.39390001 -0.164606
-0.082382798 -0.39390001 -0.162809
-0.108164 -0.33374399 -0.166535
-0.056601498 -0.385306 -0.16803201
-0.048007801 -0.37671199 -0.165178
-0.030820301 -0.368119 -0.167219
-0.022226499 -0.368119 -0.169965
0.037929699 -0.368119 -0.170403
0.0465235 -0.368119 -0.16895001
0.055117201 -0.368119 -0.167851
0.063711002 -0.368119 -0.166504
-0.022226499 -0.27358699 -0.169966
-0.030820301 -0.230619 -0.164231
-0.039414 -0.196244 -0.16949999
-0.048007801 -0.179056 -0.165181
-0.21988299 -0.14468101 -0.161881
-0.211289 -0.14468101 -0.163761
-0.245664 -0.12749401 -0.16535001
-0.26285201 -0.110306 -0.16467801
-0.25425801 -0.1189 -0.165629
-0.245664 -0.1189 -0.168998
-0.25425801 -0.110306 -0.16843601
-0.23706999 -0.136087 -0.16303401
-0.228477 -0.136087 -0.165255
-0.23706999 -0.12749401 -0.168097
-0.228477 -0.12749401 -0.1698
-0.21988299 -0.136087 -0.16686501
-0.211289 -0.136087 -0.168781
-0.28003901 -0.093118504 -0.162026
-0.28003901 -0.084524803 -0.16478001
-0.28863299 -0.075930998 -0.16226099
-0.28003901 -0.075930998 -0.166043
-0.28863299 -0.067337297 -0.16247199
-0.28003901 -0.067337297 -0.166095
-0.28863299 -0.058743499 -0.162186
-0.28003901 -0.058743499 -0.165694
-0.28003901 -0.050149798 -0.16499899
-0.28003901 -0.041556001 -0.164023
-0.27144501 -0.101712 -0.16316301
-0.26285201 -0.101712 -0.16730601
-0.27144501 -0.093118504 -0.16611201
-0.26285201 -0.093118504 -0.169706
-0.27144501 -0.084524803 -0.168488
-0.27144501 -0.075930998 -0.169589
-0.27144501 -0.067337297 -0.16967499
-0.27144501 -0.058743499 -0.169153
-0.27144501 -0.050149798 -0.1679
-0.27144501 -0.041556001 -0.166435
-0.26285201 -0.041556001 -0.169719
-0.28003901 -0.0329623 -0.163123
-0.28003901 -0.0243685 -0.162137
-0.27144501 -0.0329623 -0.165141
-0.26285201 -0.0329623 -0.168152
-0.27144501 -0.0243685 -0.163831
-0.26285201 -0.0243685 -0.166583
-0.27144501 -0.0157748 -0.16303501
-0.26285201 -0.0157748 -0.165775
-0.27144501 -0.00718102 -0.162644
-0.26285201 -0.00718102 -0.16549601
-0.25425801 -0.00718102 -0.170302
-0.27144501 0.00141275 -0.162019
-0.26285201 0.00141275 -0.16464999
-0.26285201 0.0100065 -0.162883
-0.25425801 0.00141275 -0.169063
-0.25425801 0.0100065 -0.16663501
-0.245664 0.0100065 -0.169865
-0.25425801 0.018600199 -0.163764
-0.245664 0.018600199 -0.166914
-0.25425801 0.027194001 -0.162246
-0.245664 0.027194001 -0.166298
-0.23706999 0.018600199 -0.169888
-0.23706999 0.027194001 -0.17035
-0.25425801 0.035787702 -0.161939
-0.245664 0.035787702 -0.16731399
-0.245664 0.044381499 -0.166962
-0.245664 0.0529752 -0.164372
-0.23706999 0.0529752 -0.169514
-0.23706999 0.061569002 -0.16572
-0.228477 0.061569002 -0.170012
-0.228477 0.070162699 -0.165611
-0.21988299 0.070162699 -0.169195
-0.21988299 0.078756496 -0.165548
-0.211289 0.078756496 -0.16871101
-0.21988299 0.087350197 -0.162388
-0.211289 0.087350197 -0.165685
-0.211289 0.095944002 -0.16241901
-0.202695 -0.14468101 -0.165455
-0.194102 -0.14468101 -0.166005
-0.185508 -0.14468101 -0.16538601
-0.17691401 -0.14468101 -0.164085
-0.16832 -0.14468101 -0.162255
-0.17691401 -0.136087 -0.16989
-0.16832 -0.136087 -0.168255
-0.15972701 -0.136087 -0.166499
-0.151133 -0.136087 -0.165571
-0.14253899 -0.136087 -0.165383
-0.108164 -0.170462 -0.162569
-0.116758 -0.161869 -0.16383199
-0.108164 -0.161869 -0.16707
-0.125352 -0.153275 -0.16240899
-0.125352 -0.14468101 -0.16531099
-0.116758 -0.153275 -0.16727901
-0.116758 -0.14468101 -0.169917
-0.099570297 -0.170462 -0.162682
-0.099570297 -0.161869 -0.16744401
-0.090976499 -0.161869 -0.165526
-0.082382798 -0.161869 -0.163449
-0.073789001 -0.161869 -0.16254
-0.090976499 -0.153275 -0.169193
-0.082382798 -0.153275 -0.16727
-0.073789001 -0.153275 -0.16672
-0.082382798 -0.14468101 -0.170002
-0.073789001 -0.14468101 -0.169827
-0.133945 -0.136087 -0.16594
-0.125352 -0.136087 -0.16804001
-0.133945 -0.12749401 -0.17036501
-0.056601498 -0.170462 -0.16316099
-0.0651953 -0.161869 -0.16362201
-0.056601498 -0.161869 -0.16777299
-0.0651953 -0.153275 -0.16820601
-0.202695 0.087350197 -0.168947
-0.202695 0.095944002 -0.16601001
-0.194102 0.095944002 -0.169255
0.115273 -0.385306 -0.16992299
0.123867 -0.385306 -0.16841
0.132461 -0.385306 -0.166876
0.141055 -0.385306 -0.16570599
0.149648 -0.385306 -0.16403501
0.158242 -0.385306 -0.16269501
0.080898501 -0.37671199 -0.169774
0.072304703 -0.368119 -0.164967
0.080898501 -0.368119 -0.163481
0.089492299 -0.37671199 -0.168402
0.098085999 -0.37671199 -0.166899
0.089492299 -0.368119 -0.162127
0.10668 -0.37671199 -0.165261
0.115273 -0.37671199 -0.163663
0.123867 -0.37671199 -0.162388
0.29574201 -0.359525 -0.16599099
0.32152301 -0.31655601 -0.168825
0.33871099 -0.307962 -0.166504
0.347305 -0.29936901 -0.16815799
0.35589799 -0.290775 -0.163424
0.364492 -0.264994 -0.162387
0.364492 -0.25639999 -0.16421001
0.364492 -0.247806 -0.16616
0.364492 -0.23921201 -0.17004301
0.37308601 -0.230619 -0.16763701
0.38168001 -0.22202501 -0.164386
0.38168001 -0.213431 -0.16796
0.38168001 -0.20483699 -0.170168
0.39027399 -0.18765 -0.163334
0.39027399 -0.179056 -0.164465
0.269961 0.095944002 -0.17028201
0.31292999 0.061569002 -0.170454
0.32152301 0.061569002 -0.168009
0.33871099 0.0529752 -0.16675299
0.33011699 0.061569002 -0.164957
0.287148 0.078756496 -0.167576
0.29574201 0.070162699 -0.168256
0.30433601 0.070162699 -0.165976
0.29574201 0.078756496 -0.16421001
0.27855501 0.087350197 -0.168947
0.287148 0.087350197 -0.165482
0.27855501 0.095944002 -0.16597299
0.287148 0.095944002 -0.162597
0.29574201 0.087350197 -0.16217101
0.31292999 0.070162699 -0.16394199
0.32152301 0.070162699 -0.162002
0.39027399 -0.170462 -0.16485099
0.39027399 -0.161869 -0.164759
0.39027399 -0.153275 -0.163864
0.39027399 -0.14468101 -0.162598
0.39027399 -0.136087 -0.162025
0.39027399 -0.12749401 -0.16259401
0.39027399 -0.1189 -0.16429
0.39027399 -0.110306 -0.167555
0.39886701 -0.093118504 -0.166308
0.39886701 -0.084524803 -0.16962001
0.40746099 -0.075930998 -0.16292401
0.40746099 -0.067337297 -0.163247
0.39886701 -0.058743499 -0.169691
0.40746099 -0.058743499 -0.16251799
0.39886701 -0.050149798 -0.168121
0.39886701 -0.041556001 -0.166105
0.37308601 -0.00718102 -0.170022
0.39027399 -0.0329623 -0.169934
0.39027399 -0.0243685 -0.16584
0.39886701 -0.0329623 -0.16295201
0.38168001 -0.0157748 -0.168383
0.37308601 0.00141275 -0.163543
0.364492 0.0100065 -0.166752
0.35589799 0.018600199 -0.17042001
0.35589799 0.027194001 -0.16671599
0.364492 0.018600199 -0.16268601
0.347305 0.035787702 -0.169634
0.35589799 0.035787702 -0.16433799
0.347305 0.044381499 -0.166712
0.35589799 0.044381499 -0.161939
0.347305 0.0529752 -0.16262101
-0.28863299 0.319381 -0.167089
-0.30581999 0.33656901 -0.165291
-0.202695 0.104538 -0.162469
-0.194102 0.104538 -0.165543
-0.185508 0.104538 -0.167895
-0.17691401 0.104538 -0.16964699
-0.185508 0.113131 -0.163084
-0.17691401 0.113131 -0.16480801
-0.16832 0.113131 -0.16621099
-0.15972701 0.113131 -0.167191
-0.151133 0.113131 -0.167419
-0.14253899 0.113131 -0.16642401
-0.15972701 0.121725 -0.162365
-0.151133 0.121725 -0.16256
-0.133945 0.104538 -0.169958
-0.125352 0.104538 -0.168827
-0.133945 0.113131 -0.16479599
-0.125352 0.113131 -0.163863
-0.116758 0.104538 -0.16863801
-0.108164 0.104538 -0.16921601
-0.116758 0.113131 -0.163562
-0.108164 0.113131 -0.16377801
-0.099570297 0.113131 -0.16498201
-0.090976499 0.113131 -0.16662499
-0.082382798 0.113131 -0.16834
-0.073789001 0.113131 -0.16953801
-0.082382798 0.121725 -0.162595
-0.073789001 0.121725 -0.16365799
-0.0651953 0.113131 -0.169881
-0.056601498 0.113131 -0.16968501
-0.048007801 0.113131 -0.169292
-0.039414 0.113131 -0.169147
-0.0651953 0.121725 -0.16398899
-0.056601498 0.121725 -0.163734
-0.048007801 0.121725 -0.16322701
-0.039414 0.121725 -0.163213
-0.030820301 0.113131 -0.169174
-0.022226499 0.113131 -0.168915
-0.0136328 0.113131 -0.167797
-0.0050390102 0.113131 -0.165962
-0.030820301 0.121725 -0.163573
-0.022226499 0.121725 -0.16315401
0.00355473 0.113131 -0.165571
0.0121485 0.113131 -0.16756999
0.0207422 0.121725 -0.162985
0.029336 0.121725 -0.166251
0.037929699 0.121725 -0.169303
0.0465235 0.130319 -0.162443
0.055117201 0.130319 -0.16378801
0.063711002 0.130319 -0.163697
-0.323008 0.42250699 -0.162102
-0.31441399 0.43969399 -0.169953
-0.228477 0.396725 -0.169478
-0.245664 0.42250699 -0.163936
-0.26285201 0.43969399 -0.16385899
-0.23706999 0.41391301 -0.169374
-0.297227 0.44828799 -0.166565
-0.28863299 0.44828799 -0.163846
-0.28003901 0.44828799 -0.165911
0.037929699 0.43969399 -0.162423
0.0465235 0.43969399 -0.163526
0.055117201 0.43969399 -0.16473401
0.063711002 0.43969399 -0.165892
-0.022226499 0.456882 -0.162854
-0.0050390102 0.44828799 -0.162707
-0.0136328 0.456882 -0.164905
-0.0050390102 0.456882 -0.16693801
-0.030820301 0.46547499 -0.162535
-0.022226499 0.46547499 -0.165461
-0.030820301 0.474069 -0.16299
-0.022226499 0.474069 -0.166833
-0.0136328 0.46547499 -0.16808499
-0.0136328 0.474069 -0.170175
-0.030820301 0.48266301 -0.16238201
-0.022226499 0.48266301 -0.166871
-0.022226499 0.491256 -0.166143
-0.022226499 0.49985 -0.164883
-0.022226499 0.50844401 -0.162903
-0.0136328 0.49985 -0.17035501
-0.0136328 0.50844401 -0.168952
0.00355473 0.44828799 -0.163651
0.0121485 0.44828799 -0.16473199
0.00355473 0.456882 -0.16857401
0.0121485 0.456882 -0.170067
0.0207422 0.44828799 -0.166042
0.029336 0.44828799 -0.167417
0.037929699 0.44828799 -0.169011
0.063711002 0.491256 -0.16384099
0.055117201 0.49985 -0.162449
0.063711002 0.49985 -0.16795801
0.055117201 0.50844401 -0.165335
-0.0136328 0.51703799 -0.166474
-0.0136328 0.52563101 -0.162634
-0.0050390102 0.52563101 -0.16991401
-0.0050390102 0.53422499 -0.165344
0.00355473 0.54281902 -0.16831601
0.0465235 0.52563101 -0.162099
0.055117201 0.51703799 -0.16760699
0.055117201 0.52563101 -0.169192
0.0465235 0.53422499 -0.162771
0.0465235 0.54281902 -0.162972
0.0121485 0.56000602 -0.162406
0.0207422 0.5686 -0.16603599
0.029336 0.57719398 -0.16949899
0.055117201 0.5686 -0.168964
0.055117201 0.57719398 -0.16786
0.0465235 0.58578801 -0.16417
0.072304703 0.121725 -0.169701
0.080898501 0.121725 -0.168514
0.072304703 0.130319 -0.16343901
0.080898501 0.130319 -0.163499
0.089492299 0.121725 -0.16860799
0.098085999 0.121725 -0.169312
0.089492299 0.130319 -0.163736
0.098085999 0.130319 -0.163583
0.10668 0.121725 -0.16995201
0.10668 0.130319 -0.16337
0.115273 0.130319 -0.16353001
0.123867 0.130319 -0.164272
0.132461 0.130319 -0.16491
0.141055 0.130319 -0.165223
0.149648 0.130319 -0.166733
0.158242 0.130319 -0.169379
0.158242 0.13891301 -0.162487
0.16683599 0.13891301 -0.16568799
0.17543 0.13891301 -0.168337
0.18402299 0.13891301 -0.169928
0.20121101 0.13891301 -0.170241
0.226992 0.130319 -0.168824
0.235586 0.130319 -0.16527399
0.269961 0.104538 -0.16777299
0.26136699 0.113131 -0.167925
0.269961 0.113131 -0.163903
0.24417999 0.121725 -0.16799399
0.25277299 0.121725 -0.16497301
0.24417999 0.130319 -0.162773
0.26136699 0.121725 -0.162485
0.209805 0.13891301 -0.168632
0.218399 0.13891301 -0.165649
0.226992 0.13891301 -0.16294999
0.27855501 0.104538 -0.163359
0.072304703 0.43969399 -0.166991
0.080898501 0.43969399 -0.16785701
0.089492299 0.43969399 -0.167316
0.098085999 0.46547499 -0.163454
0.089492299 0.474069 -0.16548499
0.072304703 0.48266301 -0.163397
0.080898501 0.48266301 -0.16798501
0.072304703 0.491256 -0.168873
-0.125352 -0.395421 -0.153272
-0.12993801 -0.39390001 -0.153272
-0.133945 -0.389422 -0.153272
-0.134002 -0.385306 -0.153272
-0.116758 -0.396016 -0.153272
-0.108164 -0.395724 -0.153272
-0.099570297 -0.39529699 -0.153272
-0.090976499 -0.394389 -0.153272
-0.0881119 -0.39390001 -0.153272
-0.082382798 -0.39226201 -0.153272
-0.073789001 -0.388172 -0.153272
-0.133945 -0.384974 -0.153272
-0.132861 -0.37671199 -0.153272
-0.13099299 -0.368119 -0.153272
-0.12777101 -0.359525 -0.153272
-0.125352 -0.35399899 -0.153272
-0.123859 -0.35093099 -0.153272
-0.118581 -0.34233701 -0.153272
-0.116758 -0.33944201 -0.153272
-0.113333 -0.33374399 -0.153272
-0.108164 -0.32640901 -0.153272
-0.107232 -0.32515001 -0.153272
-0.099570297 -0.31674501 -0.153272
-0.099376597 -0.31655601 -0.153272
-0.069417998 -0.385306 -0.153272
-0.0651953 -0.38163799 -0.153272
-0.059965201 -0.37671199 -0.153272
-0.056601498 -0.373613 -0.153272
-0.048632398 -0.368119 -0.153272
-0.048007801 -0.367807 -0.153272
-0.039414 -0.364775 -0.153272
-0.030820301 -0.36344001 -0.153272
-0.022226499 -0.36296001 -0.153272
-0.0136328 -0.36273199 -0.153272
-0.0050390102 -0.36274299 -0.153272
0.00355473 -0.36279401 -0.153272
0.0121485 -0.362672 -0.153272
0.0207422 -0.36277699 -0.153272
0.029336 -0.36276299 -0.153272
0.037929699 -0.36275199 -0.153272
0.0465235 -0.36261201 -0.153272
0.055117201 -0.36231199 -0.153272
0.063711002 -0.36230201 -0.153272
-0.090976499 -0.31044 -0.153272
-0.084822699 -0.307962 -0.153272
-0.082382798 -0.30705401 -0.153272
-0.073789001 -0.304061 -0.153272
-0.125352 -0.182227 -0.153272
-0.128093 -0.179056 -0.153272
-0.108164 -0.18909401 -0.153272
-0.114952 -0.18765 -0.153272
-0.116758 -0.18700799 -0.153272
-0.099570297 -0.188711 -0.153272
-0.094498903 -0.18765 -0.153272
-0.090976499 -0.18651 -0.153272
-0.082382798 -0.183109 -0.153272
-0.073789001 -0.18250699 -0.153272
-0.0651953 -0.30146399 -0.153272
-0.0579555 -0.29936901 -0.153272
-0.056601498 -0.29894599 -0.153272
-0.048007801 -0.29540101 -0.153272
-0.039414 -0.291311 -0.153272
-0.038210899 -0.290775 -0.153272
-0.030820301 -0.28553 -0.153272
-0.028150201 -0.28218099 -0.153272
-0.025966899 -0.27358699 -0.153272
-0.026771501 -0.264994 -0.153272
-0.027525499 -0.25639999 -0.153272
-0.0288502 -0.247806 -0.153272
-0.039414 -0.21371 -0.153272
-0.039436299 -0.213431 -0.153272
-0.030820301 -0.240045 -0.153272
-0.0310563 -0.23921201 -0.153272
-0.033459298 -0.230619 -0.153272
-0.036670599 -0.22202501 -0.153272
-0.042380098 -0.20483699 -0.153272
-0.048007801 -0.197212 -0.153272
-0.0486723 -0.196244 -0.153272
-0.056601498 -0.188004 -0.153272
-0.057440098 -0.18765 -0.153272
-0.0651953 -0.185239 -0.153272
-0.28003901 -0.113189 -0.153272
-0.28179699 -0.110306 -0.153272
-0.23706999 -0.14795899 -0.153272
-0.243277 -0.14468101 -0.153272
-0.228477 -0.15255 -0.153272
-0.21988299 -0.15729 -0.153272
-0.22711401 -0.153275 -0.153272
-0.211289 -0.16067199 -0.153272
-0.26285201 -0.13235 -0.153272
-0.268774 -0.12749401 -0.153272
-0.25425801 -0.138069 -0.153272
-0.25709501 -0.136087 -0.153272
-0.245664 -0.143419 -0.153272
-0.27144501 -0.124268 -0.153272
-0.27583 -0.1189 -0.153272
-0.287521 -0.101712 -0.153272
-0.28863299 -0.100158 -0.153272
-0.293901 -0.093118504 -0.153272
-0.297227 -0.088519797 -0.153272
-0.29997799 -0.084524803 -0.153272
-0.30427301 -0.075930998 -0.153272
-0.30581999 -0.070237197 -0.153272
-0.30634499 -0.067337297 -0.153272
-0.30719101 -0.058743499 -0.153272
-0.30720001 -0.050149798 -0.153272
-0.30658001 -0.041556001 -0.153272
-0.30581999 -0.036239699 -0.153272
-0.30521899 -0.0329623 -0.153272
-0.303058 -0.0243685 -0.153272
-0.300387 -0.0157748 -0.153272
-0.29848701 -0.00718102 -0.153272
-0.297227 -0.00180179 -0.153272
-0.29627699 0.00141275 -0.153272
-0.29256701 0.0100065 -0.153272
-0.28863299 0.016473601 -0.153272
-0.28712901 0.018600199 -0.153272
-0.28003901 0.026269799 -0.153272
-0.27903101 0.027194001 -0.153272
-0.27236801 0.035787702 -0.153272
-0.27144501 0.037866998 -0.153272
-0.26875401 0.044381499 -0.153272
-0.26352301 0.0529752 -0.153272
-0.26285201 0.0538904 -0.153272
-0.25625199 0.061569002 -0.153272
-0.25425801 0.063441902 -0.153272
-0.24714801 0.070162699 -0.153272
-0.245664 0.071615398 -0.153272
-0.24051499 0.078756496 -0.153272
-0.23706999 0.086342499 -0.153272
-0.23666 0.087350197 -0.153272
-0.23214599 0.095944002 -0.153272
-0.202695 -0.16192199 -0.153272
-0.203315 -0.161869 -0.153272
-0.194102 -0.16224 -0.153272
-0.185616 -0.161869 -0.153272
-0.185508 -0.16186 -0.153272
-0.17691401 -0.16098601 -0.153272
-0.16832 -0.160368 -0.153272
-0.15972701 -0.159953 -0.153272
-0.151133 -0.15911201 -0.153272
-0.14253899 -0.160613 -0.153272
-0.13372999 -0.170462 -0.153272
-0.133945 -0.170109 -0.153272
-0.140532 -0.161869 -0.153272
0.072304703 -0.362286 -0.153272
0.080898501 -0.36225501 -0.153272
0.089492299 -0.36245501 -0.153272
0.098085999 -0.362964 -0.153272
0.10668 -0.36352301 -0.153272
0.115273 -0.36409101 -0.153272
0.123867 -0.36471701 -0.153272
0.132461 -0.36575401 -0.153272
0.149648 -0.368853 -0.153272
0.14576 -0.368119 -0.153272
0.158242 -0.370177 -0.153272
0.16683599 -0.371021 -0.153272
0.141055 -0.367295 -0.153272
0.18402299 -0.37732399 -0.153272
0.182855 -0.37671199 -0.153272
0.17543 -0.373043 -0.153272
0.192617 -0.38173401 -0.153272
0.20121101 -0.38511401 -0.153272
0.209805 -0.38786301 -0.153272
0.201859 -0.385306 -0.153272
0.218399 -0.389884 -0.153272
0.226992 -0.39108899 -0.153272
0.235586 -0.39206401 -0.153272
0.24417999 -0.39208499 -0.153272
0.25277299 -0.39147699 -0.153272
0.26136699 -0.39076999 -0.153272
0.269961 -0.38933599 -0.153272
0.27855501 -0.38653401 -0.153272
0.28108901 -0.385306 -0.153272
0.287148 -0.37971601 -0.153272
0.289049 -0.37671199 -0.153272
0.294278 -0.368119 -0.153272
0.29574201 -0.365619 -0.153272
0.29913101 -0.359525 -0.153272
0.30433601 -0.35107401 -0.153272
0.304425 -0.35093099 -0.153272
0.30963001 -0.34233701 -0.153272
0.31292999 -0.33619401 -0.153272
0.31410399 -0.33374399 -0.153272
0.32056499 -0.32515001 -0.153272
0.32152301 -0.32441899 -0.153272
0.33011699 -0.318968 -0.153272
0.33473 -0.31655601 -0.153272
0.33871099 -0.31417 -0.153272
0.34636599 -0.307962 -0.153272
0.347305 -0.30703601 -0.153272
0.354256 -0.29936901 -0.153272
0.35589799 -0.29710999 -0.153272
0.35965699 -0.290775 -0.153272
0.36357701 -0.28218099 -0.153272
0.364492 -0.27968901 -0.153272
0.366629 -0.27358699 -0.153272
0.369618 -0.264994 -0.153272
0.372197 -0.25639999 -0.153272
0.37308601 -0.25346199 -0.153272
0.37544799 -0.247806 -0.153272
0.38109699 -0.23921201 -0.153272
0.38168001 -0.238399 -0.153272
0.38668799 -0.230619 -0.153272
0.39008701 -0.22202501 -0.153272
0.39027399 -0.221315 -0.153272
0.39192301 -0.213431 -0.153272
0.393558 -0.20483699 -0.153272
0.395897 -0.196244 -0.153272
0.39864701 -0.18765 -0.153272
0.39886701 -0.186969 -0.153272
0.40102899 -0.179056 -0.153272
0.33871099 0.075084403 -0.153272
0.33287901 0.078756496 -0.153272
0.32152301 0.084555902 -0.153272
0.317523 0.087350197 -0.153272
0.31292999 0.092100397 -0.153272
0.31037799 0.095944002 -0.153272
0.33011699 0.080001198 -0.153272
0.40191901 -0.170462 -0.153272
0.40109399 -0.161869 -0.153272
0.39939401 -0.153275 -0.153272
0.39886701 -0.150747 -0.153272
0.39772499 -0.14468101 -0.153272
0.39690301 -0.136087 -0.153272
0.39750901 -0.12749401 -0.153272
0.39886701 -0.120094 -0.153272
0.399138 -0.1189 -0.153272
0.40181699 -0.110306 -0.153272
0.40595999 -0.101712 -0.153272
0.40746099 -0.098902397 -0.153272
0.41069099 -0.093118504 -0.153272
0.41447201 -0.084524803 -0.153272
0.416031 -0.075930998 -0.153272
0.41605499 -0.075672202 -0.153272
0.41644901 -0.067337297 -0.153272
0.41610301 -0.058743499 -0.153272
0.41605499 -0.058207899 -0.153272
0.414547 -0.050149798 -0.153272
0.41166401 -0.041556001 -0.153272
0.40746099 -0.031902499 -0.153272
0.4032 -0.0243685 -0.153272
0.39027399 -0.0073121199 -0.153272
0.390156 -0.00718102 -0.153272
0.39886701 -0.018071 -0.153272
0.397237 -0.0157748 -0.153272
0.38330099 0.00141275 -0.153272
0.38168001 0.0040910798 -0.153272
0.37914801 0.0100065 -0.153272
0.376739 0.018600199 -0.153272
0.374668 0.027194001 -0.153272
0.407942 -0.0329623 -0.153272
0.37308601 0.0333196 -0.153272
0.37239599 0.035787702 -0.153272
0.36892399 0.044381499 -0.153272
0.35589799 0.0611674 -0.153272
0.35543701 0.061569002 -0.153272
0.364492 0.0519398 -0.153272
0.36375001 0.0529752 -0.153272
0.347305 0.0681509 -0.153272
0.34473699 0.070162699 -0.153272
-0.228477 0.100672 -0.153272
-0.224738 0.104538 -0.153272
-0.21988299 0.108974 -0.153272
-0.214816 0.113131 -0.153272
-0.211289 0.115674 -0.153272
-0.28863299 0.315238 -0.153272
-0.29520601 0.319381 -0.153272
-0.28003901 0.31287301 -0.153272
-0.297227 0.321946 -0.153272
-0.30150801 0.327975 -0.153272
-0.30581999 0.33364099 -0.153272
-0.30830199 0.33656901 -0.153272
-0.31441399 0.345007 -0.153272
-0.31451201 0.34516299 -0.153272
-0.3163 0.35375601 -0.153272
-0.31441399 0.36023301 -0.153272
-0.31333801 0.36234999 -0.153272
-0.313925 0.37094399 -0.153272
-0.27144501 0.31206399 -0.153272
-0.26285201 0.31277999 -0.153272
-0.25425801 0.314428 -0.153272
-0.245664 0.31812799 -0.153272
-0.243687 0.319381 -0.153272
-0.23706999 0.32635599 -0.153272
-0.236131 0.327975 -0.153272
-0.23229 0.33656901 -0.153272
-0.23004 0.34516299 -0.153272
-0.228746 0.35375601 -0.153272
-0.228477 0.356354 -0.153272
-0.227988 0.36234999 -0.153272
-0.227595 0.37094399 -0.153272
-0.202695 0.121169 -0.153272
-0.201748 0.121725 -0.153272
-0.194102 0.12572999 -0.153272
-0.185508 0.12925901 -0.153272
-0.18252601 0.130319 -0.153272
-0.17691401 0.132487 -0.153272
-0.16832 0.136061 -0.153272
-0.15972701 0.13829499 -0.153272
-0.15519001 0.13891301 -0.153272
-0.151133 0.13929901 -0.153272
-0.14253899 0.140521 -0.153272
-0.133945 0.14277101 -0.153272
-0.125352 0.144522 -0.153272
-0.116758 0.144291 -0.153272
-0.108164 0.141946 -0.153272
-0.099570297 0.138649 -0.153272
-0.100264 0.13891301 -0.153272
-0.090976499 0.13570599 -0.153272
-0.082382798 0.134903 -0.153272
-0.073789001 0.135272 -0.153272
-0.0651953 0.134982 -0.153272
-0.056601498 0.132965 -0.153272
-0.048007801 0.131771 -0.153272
-0.039414 0.132452 -0.153272
-0.030820301 0.133065 -0.153272
-0.022226499 0.132771 -0.153272
-0.0136328 0.131993 -0.153272
-0.0050390102 0.131626 -0.153272
0.00355473 0.13164 -0.153272
0.0121485 0.131754 -0.153272
0.0207422 0.132329 -0.153272
0.029336 0.133384 -0.153272
0.037929699 0.135169 -0.153272
0.0465235 0.137477 -0.153272
0.051700301 0.13891301 -0.153272
0.055117201 0.13979501 -0.153272
0.063711002 0.14189 -0.153272
-0.31441399 0.37143299 -0.153272
-0.32147801 0.379538 -0.153272
-0.323008 0.38194701 -0.153272
-0.32552099 0.38813099 -0.153272
-0.32657501 0.396725 -0.153272
-0.32573301 0.40531901 -0.153272
-0.32383099 0.41391301 -0.153272
-0.323008 0.41664499 -0.153272
-0.3206 0.42250699 -0.153272
-0.31441399 0.43072101 -0.153272
-0.31400499 0.43110001 -0.153272
-0.30581999 0.43716699 -0.153272
-0.30118299 0.43969399 -0.153272
-0.228477 0.38204199 -0.153272
-0.229855 0.38813099 -0.153272
-0.22808699 0.379538 -0.153272
-0.233358 0.396725 -0.153272
-0.23706999 0.40367901 -0.153272
-0.23806299 0.40531901 -0.153272
-0.245664 0.41558799 -0.153272
-0.25113699 0.42250699 -0.153272
-0.27144501 0.439311 -0.153272
-0.27239099 0.43969399 -0.153272
-0.26285201 0.43426901 -0.153272
-0.25425801 0.42641899 -0.153272
-0.258854 0.43110001 -0.153272
-0.244385 0.41391301 -0.153272
-0.297227 0.44127399 -0.153272
-0.28863299 0.44278601 -0.153272
-0.28003901 0.441926 -0.153272
-0.039414 0.43918499 -0.153272
-0.040379301 0.43969399 -0.153272
-0.030820301 0.43555099 -0.153272
-0.022226499 0.432372 -0.153272
-0.0136328 0.429901 -0.153272
-0.0184891 0.43110001 -0.153272
-0.0050390102 0.42893499 -0.153272
0.00355473 0.42899001 -0.153272
0.0121485 0.42933601 -0.153272
0.0207422 0.42953199 -0.153272
0.029336 0.42938399 -0.153272
0.037929699 0.42894301 -0.153272
0.0465235 0.42872101 -0.153272
0.055117201 0.42878699 -0.153272
0.063711002 0.42897701 -0.153272
-0.048007801 0.44559601 -0.153272
-0.049963702 0.44828799 -0.153272
-0.0527923 0.456882 -0.153272
-0.0530353 0.46547499 -0.153272
-0.0513069 0.474069 -0.153272
-0.048316799 0.48266301 -0.153272
-0.048007801 0.483661 -0.153272
-0.045227699 0.491256 -0.153272
-0.0407506 0.49985 -0.153272
-0.039414 0.50215799 -0.153272
-0.035564199 0.50844401 -0.153272
0.063711002 0.474058 -0.153272
0.063691698 0.474069 -0.153272
0.0465235 0.48932701 -0.153272
0.045017801 0.491256 -0.153272
0.055117201 0.48033401 -0.153272
0.052515101 0.48266301 -0.153272
0.039801799 0.49985 -0.153272
0.037929699 0.50576502 -0.153272
0.037352301 0.50844401 -0.153272
-0.030820301 0.51579899 -0.153272
-0.0299778 0.51703799 -0.153272
-0.023696801 0.52563101 -0.153272
-0.022226499 0.527578 -0.153272
-0.016843701 0.53422499 -0.153272
-0.0136328 0.53800601 -0.153272
-0.0092955204 0.54281902 -0.153272
-0.0050390102 0.54744601 -0.153272
0.036267899 0.51703799 -0.153272
0.0359939 0.52563101 -0.153272
0.036244798 0.53422499 -0.153272
0.0376071 0.54281902 -0.153272
-0.00108647 0.551413 -0.153272
0.00355473 0.556364 -0.153272
0.00715941 0.56000602 -0.153272
0.0121485 0.56524497 -0.153272
0.0152831 0.5686 -0.153272
0.0207422 0.57377601 -0.153272
0.024685999 0.57719398 -0.153272
0.037929699 0.54413003 -0.153272
0.039896201 0.551413 -0.153272
0.0427722 0.56000602 -0.153272
0.045225099 0.5686 -0.153272
0.044517599 0.57719398 -0.153272
0.029336 0.58025497 -0.153272
0.037929699 0.58230102 -0.153272
0.072304703 0.14361399 -0.153272
0.080898501 0.14469101 -0.153272
0.089492299 0.14518601 -0.153272
0.098085999 0.146176 -0.153272
0.10668 0.14737099 -0.153272
0.108664 0.147506 -0.153272
0.132461 0.14741801 -0.153272
0.13158099 0.147506 -0.153272
0.115273 0.147599 -0.153272
0.123867 0.14769299 -0.153272
0.141055 0.146706 -0.153272
0.149648 0.146862 -0.153272
0.154318 0.147506 -0.153272
0.158242 0.14836299 -0.153272
0.16683599 0.150326 -0.153272
0.17543 0.152153 -0.153272
0.18402299 0.153552 -0.153272
0.192617 0.15458 -0.153272
0.20121101 0.155039 -0.153272
0.209805 0.15495899 -0.153272
0.218399 0.154715 -0.153272
0.226992 0.15396801 -0.153272
0.235586 0.15242299 -0.153272
0.25277299 0.145659 -0.153272
0.24927799 0.147506 -0.153272
0.269961 0.132751 -0.153272
0.26240301 0.13891301 -0.153272
0.26136699 0.139696 -0.153272
0.24417999 0.149609 -0.153272
0.30433601 0.104834 -0.153272
0.29671401 0.113131 -0.153272
0.287148 0.120454 -0.153272
0.28514901 0.121725 -0.153272
0.27855501 0.12606899 -0.153272
0.27275699 0.130319 -0.153272
0.29574201 0.113998 -0.153272
0.30456099 0.104538 -0.153272
0.072304703 0.429324 -0.153272
0.080898501 0.43053901 -0.153272
0.083175302 0.43110001 -0.153272
0.089492299 0.434149 -0.153272
0.095412299 0.43969399 -0.153272
0.098069496 0.44828799 -0.153272
0.094288297 0.456882 -0.153272
0.080898501 0.46545401 -0.153272
0.080846101 0.46547499 -0.153272
0.072304703 0.46940401 -0.153272
0.089492299 0.46082199 -0.153272
-0.133945 -0.385306 -0.153431
-0.125352 -0.359525 -0.16138101
-0.116758 -0.34233701 -0.158472
-0.0651953 -0.385306 -0.15889201
-0.056601498 -0.37671199 -0.157424
-0.048007801 -0.368119 -0.153991
-0.039414 -0.368119 -0.16160201
-0.082382798 -0.307962 -0.15784299
-0.125352 -0.179056 -0.154401
-0.108164 -0.18765 -0.15400399
-0.116758 -0.179056 -0.15719201
-0.108164 -0.179056 -0.15849601
-0.099570297 -0.18765 -0.153837
-0.099570297 -0.179056 -0.15844201
-0.090976499 -0.179056 -0.156913
-0.082382798 -0.179056 -0.155168
-0.073789001 -0.179056 -0.154718
-0.056601498 -0.29936901 -0.15633599
-0.039414 -0.213431 -0.153318
-0.030820301 -0.23921201 -0.15467
-0.039414 -0.20483699 -0.16117001
-0.048007801 -0.196244 -0.15399601
-0.056601498 -0.18765 -0.15341499
-0.0651953 -0.179056 -0.155876
-0.056601498 -0.179056 -0.158149
-0.048007801 -0.18765 -0.159104
-0.28003901 -0.110306 -0.154471
-0.23706999 -0.14468101 -0.156408
-0.228477 -0.14468101 -0.159648
-0.21988299 -0.153275 -0.15624499
-0.211289 -0.153275 -0.158793
-0.26285201 -0.12749401 -0.15668
-0.25425801 -0.136087 -0.154936
-0.245664 -0.136087 -0.15983
-0.25425801 -0.12749401 -0.16135
-0.27144501 -0.1189 -0.156251
-0.26285201 -0.1189 -0.16147999
-0.27144501 -0.110306 -0.16023301
-0.28003901 -0.101712 -0.158187
-0.28863299 -0.093118504 -0.156951
-0.297227 -0.084524803 -0.155331
-0.297227 -0.075930998 -0.157855
-0.28863299 -0.084524803 -0.16078299
-0.30581999 -0.067337297 -0.15362599
-0.297227 -0.067337297 -0.158574
-0.30581999 -0.058743499 -0.154121
-0.297227 -0.058743499 -0.15865999
-0.30581999 -0.050149798 -0.154101
-0.297227 -0.050149798 -0.15827399
-0.30581999 -0.041556001 -0.15367
-0.297227 -0.041556001 -0.157655
-0.28863299 -0.050149798 -0.161699
-0.28863299 -0.041556001 -0.161108
-0.297227 -0.0329623 -0.15679
-0.297227 -0.0243685 -0.155689
-0.28863299 -0.0329623 -0.16040701
-0.28863299 -0.0243685 -0.159456
-0.297227 -0.0157748 -0.15463001
-0.297227 -0.00718102 -0.153798
-0.28863299 -0.0157748 -0.158363
-0.28003901 -0.0157748 -0.161239
-0.28863299 -0.00718102 -0.157518
-0.28003901 -0.00718102 -0.16072699
-0.28863299 0.00141275 -0.156656
-0.28003901 0.00141275 -0.16001
-0.28863299 0.0100065 -0.15503401
-0.28003901 0.0100065 -0.15851299
-0.28003901 0.018600199 -0.155902
-0.27144501 0.0100065 -0.160615
-0.27144501 0.018600199 -0.158115
-0.26285201 0.018600199 -0.160614
-0.27144501 0.027194001 -0.155506
-0.26285201 0.027194001 -0.158511
-0.27144501 0.035787702 -0.153639
-0.26285201 0.035787702 -0.157355
-0.26285201 0.044381499 -0.156183
-0.25425801 0.044381499 -0.161294
-0.26285201 0.0529752 -0.153632
-0.25425801 0.0529752 -0.15880901
-0.25425801 0.061569002 -0.15432601
-0.245664 0.061569002 -0.159935
-0.245664 0.070162699 -0.15419599
-0.23706999 0.070162699 -0.160606
-0.23706999 0.078756496 -0.15598901
-0.228477 0.078756496 -0.16173799
-0.228477 0.087350197 -0.158604
-0.228477 0.095944002 -0.155157
-0.21988299 0.095944002 -0.159113
-0.202695 -0.161869 -0.15331601
-0.194102 -0.161869 -0.153574
-0.202695 -0.153275 -0.160052
-0.194102 -0.153275 -0.16040801
-0.185508 -0.153275 -0.16006801
-0.17691401 -0.153275 -0.15901799
-0.16832 -0.153275 -0.157809
-0.15972701 -0.153275 -0.15669399
-0.15972701 -0.14468101 -0.160762
-0.151133 -0.153275 -0.15568601
-0.14253899 -0.153275 -0.15577599
-0.151133 -0.14468101 -0.159914
-0.14253899 -0.14468101 -0.15995701
-0.125352 -0.170462 -0.15723599
-0.133945 -0.161869 -0.155558
-0.125352 -0.161869 -0.159756
-0.116758 -0.170462 -0.16069201
-0.133945 -0.153275 -0.158199
-0.133945 -0.14468101 -0.161751
-0.090976499 -0.170462 -0.16126201
-0.082382798 -0.170462 -0.159502
-0.073789001 -0.170462 -0.158563
-0.0651953 -0.170462 -0.15971699
0.16683599 -0.385306 -0.16150001
0.17543 -0.385306 -0.160274
0.18402299 -0.385306 -0.15863401
0.192617 -0.385306 -0.155955
0.20121101 -0.385306 -0.15346
0.098085999 -0.368119 -0.16123299
0.10668 -0.368119 -0.15994801
0.115273 -0.368119 -0.15826
0.132461 -0.37671199 -0.161043
0.123867 -0.368119 -0.15694
0.132461 -0.368119 -0.155442
0.141055 -0.37671199 -0.159603
0.149648 -0.37671199 -0.158388
0.141055 -0.368119 -0.153854
0.158242 -0.37671199 -0.15725
0.16683599 -0.37671199 -0.156224
0.17543 -0.37671199 -0.154972
0.27855501 -0.385306 -0.156763
0.287148 -0.37671199 -0.158301
0.30433601 -0.35093099 -0.153823
0.31292999 -0.33374399 -0.158948
0.33011699 -0.31655601 -0.15944
0.364492 -0.27358699 -0.158391
0.37308601 -0.247806 -0.155862
0.37308601 -0.23921201 -0.161048
0.38168001 -0.230619 -0.158875
0.39027399 -0.213431 -0.15595999
0.39027399 -0.20483699 -0.158694
0.39027399 -0.196244 -0.16118599
0.39886701 -0.179056 -0.155425
0.33871099 0.061569002 -0.161662
0.30433601 0.078756496 -0.16147301
0.30433601 0.087350197 -0.158788
0.29574201 0.095944002 -0.159923
0.30433601 0.095944002 -0.156325
0.31292999 0.078756496 -0.159081
0.32152301 0.078756496 -0.156647
0.33011699 0.070162699 -0.159793
0.33871099 0.070162699 -0.156221
0.33011699 0.078756496 -0.154098
0.31292999 0.087350197 -0.155129
0.39886701 -0.170462 -0.156316
0.39886701 -0.161869 -0.15570401
0.39886701 -0.153275 -0.153919
0.39886701 -0.1189 -0.153612
0.39886701 -0.110306 -0.15668599
0.39886701 -0.101712 -0.16126999
0.40746099 -0.093118504 -0.156837
0.40746099 -0.084524803 -0.16106801
0.40746099 -0.050149798 -0.160987
0.40746099 -0.041556001 -0.15838499
0.41605499 -0.067337297 -0.15380099
0.41605499 -0.058743499 -0.15333501
0.40746099 -0.0329623 -0.15399601
0.39886701 -0.0243685 -0.15832201
0.39027399 -0.0157748 -0.160621
0.38168001 -0.00718102 -0.16180199
0.37308601 0.0100065 -0.158557
0.37308601 0.018600199 -0.155845
0.364492 0.027194001 -0.160486
0.37308601 0.027194001 -0.15428901
0.38168001 0.00141275 -0.15479399
0.364492 0.035787702 -0.15891901
0.364492 0.044381499 -0.156488
0.35589799 0.0529752 -0.158058
0.347305 0.061569002 -0.157447
-0.21988299 0.104538 -0.155334
-0.211289 0.104538 -0.159123
-0.211289 0.113131 -0.15466499
-0.31441399 0.34516299 -0.153768
-0.245664 0.319381 -0.156882
-0.23706999 0.327975 -0.15684301
-0.202695 0.113131 -0.15808301
-0.194102 0.113131 -0.161018
-0.194102 0.121725 -0.155735
-0.185508 0.121725 -0.158099
-0.17691401 0.121725 -0.15994
-0.17691401 0.130319 -0.154531
-0.16832 0.121725 -0.161393
-0.16832 0.130319 -0.15650301
-0.15972701 0.130319 -0.15783601
-0.14253899 0.121725 -0.161809
-0.151133 0.130319 -0.15800001
-0.14253899 0.130319 -0.157712
-0.151133 0.13891301 -0.153451
-0.14253899 0.13891301 -0.153951
-0.133945 0.121725 -0.16097599
-0.125352 0.121725 -0.160941
-0.133945 0.130319 -0.158042
-0.125352 0.130319 -0.158976
-0.116758 0.121725 -0.161035
-0.108164 0.121725 -0.16073599
-0.116758 0.130319 -0.15914699
-0.108164 0.130319 -0.158078
-0.099570297 0.121725 -0.160852
-0.090976499 0.121725 -0.16154701
-0.099570297 0.130319 -0.156808
-0.090976499 0.130319 -0.156216
-0.082382798 0.130319 -0.15656701
-0.073789001 0.130319 -0.157483
-0.133945 0.13891301 -0.154961
-0.125352 0.13891301 -0.15599801
-0.116758 0.13891301 -0.15597899
-0.108164 0.13891301 -0.15468401
-0.0651953 0.130319 -0.15764
-0.056601498 0.130319 -0.156216
-0.048007801 0.130319 -0.154976
-0.039414 0.130319 -0.15547501
-0.030820301 0.130319 -0.155967
-0.022226499 0.130319 -0.155679
-0.0136328 0.121725 -0.161779
-0.0050390102 0.121725 -0.160193
-0.0136328 0.130319 -0.154734
-0.0050390102 0.130319 -0.154157
0.00355473 0.121725 -0.159914
0.0121485 0.121725 -0.160978
0.00355473 0.130319 -0.154135
0.0121485 0.130319 -0.154329
0.0207422 0.130319 -0.15501399
0.029336 0.130319 -0.15668701
0.037929699 0.130319 -0.159574
0.055117201 0.13891301 -0.15435199
0.063711002 0.13891301 -0.156362
-0.31441399 0.43110001 -0.15410399
-0.30581999 0.43969399 -0.158163
-0.228477 0.38813099 -0.15969799
-0.23706999 0.40531901 -0.156214
-0.27144501 0.43969399 -0.154138
-0.25425801 0.43110001 -0.16135401
-0.039414 0.43969399 -0.153442
-0.030820301 0.43969399 -0.154864
-0.022226499 0.43969399 -0.156312
-0.0136328 0.43110001 -0.153824
-0.0050390102 0.43110001 -0.154421
-0.0136328 0.43969399 -0.15772
-0.0050390102 0.43969399 -0.158842
0.00355473 0.43110001 -0.15448201
0.0121485 0.43110001 -0.15431499
0.00355473 0.43969399 -0.159329
0.0121485 0.43969399 -0.159573
0.0207422 0.43110001 -0.15431701
0.029336 0.43110001 -0.154606
0.0207422 0.43969399 -0.160171
0.029336 0.43969399 -0.161191
0.037929699 0.43110001 -0.155213
0.0465235 0.43110001 -0.155707
0.055117201 0.43110001 -0.155959
0.063711002 0.43110001 -0.156103
-0.048007801 0.44828799 -0.153872
-0.039414 0.44828799 -0.15623599
-0.048007801 0.456882 -0.155242
-0.039414 0.456882 -0.158427
-0.048007801 0.46547499 -0.155563
-0.039414 0.46547499 -0.159299
-0.048007801 0.474069 -0.154838
-0.039414 0.474069 -0.159118
-0.030820301 0.44828799 -0.158195
-0.022226499 0.44828799 -0.15983801
-0.030820301 0.456882 -0.16087
-0.0136328 0.44828799 -0.161376
-0.048007801 0.48266301 -0.153459
-0.039414 0.48266301 -0.158254
-0.039414 0.491256 -0.156542
-0.039414 0.49985 -0.15406001
-0.030820301 0.491256 -0.161479
-0.030820301 0.49985 -0.15979099
-0.030820301 0.50844401 -0.15673
0.063711002 0.474069 -0.15328
0.0465235 0.491256 -0.15407
0.055117201 0.48266301 -0.15456
0.063711002 0.48266301 -0.159218
0.055117201 0.491256 -0.15909401
0.0465235 0.49985 -0.157342
0.037929699 0.50844401 -0.153681
0.0465235 0.50844401 -0.159749
-0.022226499 0.51703799 -0.15993799
-0.022226499 0.52563101 -0.154806
-0.0136328 0.53422499 -0.156708
-0.0050390102 0.54281902 -0.158427
0.037929699 0.51703799 -0.154558
0.0465235 0.51703799 -0.161204
0.037929699 0.52563101 -0.154872
0.037929699 0.53422499 -0.15482201
0.037929699 0.54281902 -0.15362801
0.00355473 0.551413 -0.160309
0.0465235 0.551413 -0.161819
0.0465235 0.56000602 -0.158747
0.0465235 0.5686 -0.15524399
0.0465235 0.57719398 -0.15600801
0.072304703 0.13891301 -0.15753999
0.080898501 0.13891301 -0.15836
0.089492299 0.13891301 -0.158481
0.098085999 0.13891301 -0.15837599
0.10668 0.13891301 -0.158638
0.115273 0.13891301 -0.158462
0.115273 0.147506 -0.153328
0.123867 0.13891301 -0.158573
0.132461 0.13891301 -0.15882599
0.123867 0.147506 -0.15337899
0.141055 0.13891301 -0.15884399
0.149648 0.13891301 -0.160009
0.158242 0.147506 -0.15416899
0.16683599 0.147506 -0.156776
0.17543 0.147506 -0.159127
0.18402299 0.147506 -0.16084699
0.192617 0.147506 -0.161861
0.20121101 0.147506 -0.1618
0.25277299 0.130319 -0.16107599
0.269961 0.121725 -0.159292
0.26136699 0.130319 -0.158538
0.269961 0.130319 -0.15454
0.209805 0.147506 -0.160753
0.218399 0.147506 -0.159146
0.235586 0.13891301 -0.16092201
0.226992 0.147506 -0.157528
0.235586 0.147506 -0.156013
0.24417999 0.13891301 -0.159227
0.25277299 0.13891301 -0.157224
0.24417999 0.147506 -0.154507
0.26136699 0.13891301 -0.153769
0.287148 0.104538 -0.160257
0.27855501 0.113131 -0.16021401
0.287148 0.113131 -0.156856
0.29574201 0.104538 -0.15706301
0.30433601 0.104538 -0.153375
0.29574201 0.113131 -0.153644
0.27855501 0.121725 -0.15549199
0.072304703 0.43110001 -0.155921
0.080898501 0.43110001 -0.154549
0.098085999 0.44828799 -0.1533
0.098085999 0.456882 -0.15676001
0.080898501 0.46547499 -0.153293
0.072304703 0.474069 -0.15726399
0.080898501 0.474069 -0.16120499
0.089492299 0.46547499 -0.157655
-0.133945 -0.39435101 -0.144679
-0.135325 -0.39390001 -0.144679
-0.125352 -0.395978 -0.144679
-0.137761 -0.385306 -0.144679
-0.116758 -0.39622799 -0.144679
-0.108164 -0.395693 -0.144679
-0.099570297 -0.39512101 -0.144679
-0.0914042 -0.39390001 -0.144679
-0.090976499 -0.39379099 -0.144679
-0.082382798 -0.39027101 -0.144679
-0.075050898 -0.385306 -0.144679
-0.13399599 -0.37671199 -0.144679
-0.133945 -0.376486 -0.144679
-0.13225301 -0.368119 -0.144679
-0.12975501 -0.359525 -0.144679
-0.125937 -0.35093099 -0.144679
-0.073789001 -0.38429001 -0.144679
-0.125352 -0.349592 -0.144679
-0.121768 -0.34233701 -0.144679
-0.116758 -0.33455601 -0.144679
-0.116207 -0.33374399 -0.144679
-0.110135 -0.32515001 -0.144679
-0.108164 -0.32253999 -0.144679
-0.102796 -0.31655601 -0.144679
-0.066198997 -0.37671199 -0.144679
-0.0651953 -0.37563801 -0.144679
-0.056601498 -0.36846501 -0.144679
-0.055967599 -0.368119 -0.144679
-0.048007801 -0.365289 -0.144679
-0.039414 -0.363913 -0.144679
-0.030820301 -0.363206 -0.144679
-0.022226499 -0.36294499 -0.144679
-0.0136328 -0.36296901 -0.144679
-0.0050390102 -0.363038 -0.144679
0.00355473 -0.36305001 -0.144679
0.0121485 -0.36287999 -0.144679
0.0207422 -0.36286899 -0.144679
0.029336 -0.36289099 -0.144679
0.037929699 -0.36281201 -0.144679
0.0465235 -0.362661 -0.144679
0.055117201 -0.36224401 -0.144679
0.063711002 -0.36205599 -0.144679
-0.099570297 -0.31350699 -0.144679
-0.090976499 -0.30819201 -0.144679
-0.090402402 -0.307962 -0.144679
-0.082382798 -0.304683 -0.144679
-0.073789001 -0.30193099 -0.144679
-0.14253899 -0.18294901 -0.144679
-0.145188 -0.179056 -0.144679
-0.125352 -0.201019 -0.144679
-0.131431 -0.196244 -0.144679
-0.108164 -0.206008 -0.144679
-0.115964 -0.20483699 -0.144679
-0.116758 -0.204694 -0.144679
-0.133945 -0.193681 -0.144679
-0.13922399 -0.18765 -0.144679
-0.099570297 -0.205419 -0.144679
-0.097355798 -0.20483699 -0.144679
-0.090976499 -0.203237 -0.144679
-0.082382798 -0.202345 -0.144679
-0.073789001 -0.203274 -0.144679
-0.0651953 -0.299597 -0.144679
-0.064466402 -0.29936901 -0.144679
-0.056601498 -0.29664999 -0.144679
-0.048007801 -0.29286101 -0.144679
-0.043088 -0.290775 -0.144679
-0.039414 -0.28935501 -0.144679
-0.031312801 -0.28218099 -0.144679
-0.030820301 -0.281165 -0.144679
-0.0293938 -0.27358699 -0.144679
-0.0301219 -0.264994 -0.144679
-0.030820301 -0.25662899 -0.144679
-0.030830299 -0.25639999 -0.144679
-0.031362001 -0.247806 -0.144679
-0.039414 -0.22443099 -0.144679
-0.041086201 -0.22202501 -0.144679
-0.045404099 -0.213431 -0.144679
-0.032878298 -0.23921201 -0.144679
-0.035933401 -0.230619 -0.144679
-0.056601498 -0.205658 -0.144679
-0.062878899 -0.20483699 -0.144679
-0.0651953 -0.20458101 -0.144679
-0.048007801 -0.209534 -0.144679
-0.28003901 -0.126958 -0.144679
-0.287319 -0.1189 -0.144679
-0.28863299 -0.117184 -0.144679
-0.293286 -0.110306 -0.144679
-0.25425801 -0.14621399 -0.144679
-0.25692999 -0.14468101 -0.144679
-0.245664 -0.151353 -0.144679
-0.21988299 -0.16643199 -0.144679
-0.228255 -0.161869 -0.144679
-0.211289 -0.169019 -0.144679
-0.23706999 -0.156159 -0.144679
-0.242257 -0.153275 -0.144679
-0.228477 -0.161726 -0.144679
-0.26285201 -0.141058 -0.144679
-0.26995 -0.136087 -0.144679
-0.27144501 -0.134845 -0.144679
-0.27944601 -0.12749401 -0.144679
-0.297227 -0.102965 -0.144679
-0.29783601 -0.101712 -0.144679
-0.302733 -0.093118504 -0.144679
-0.30581999 -0.088223703 -0.144679
-0.30817199 -0.084524803 -0.144679
-0.31289899 -0.075930998 -0.144679
-0.31441399 -0.071744502 -0.144679
-0.315548 -0.067337297 -0.144679
-0.317103 -0.058743499 -0.144679
-0.31751299 -0.050149798 -0.144679
-0.31738001 -0.041556001 -0.144679
-0.31740099 -0.0329623 -0.144679
-0.31763199 -0.0243685 -0.144679
-0.31717601 -0.0157748 -0.144679
-0.31499001 -0.00718102 -0.144679
-0.31441399 -0.0054198802 -0.144679
-0.312249 0.00141275 -0.144679
-0.309174 0.0100065 -0.144679
-0.30581999 0.016540799 -0.144679
-0.304461 0.018600199 -0.144679
-0.29845801 0.027194001 -0.144679
-0.297227 0.029007301 -0.144679
-0.29257199 0.035787702 -0.144679
-0.28863299 0.0414223 -0.144679
-0.28650999 0.044381499 -0.144679
-0.28003901 0.05274 -0.144679
-0.279843 0.0529752 -0.144679
-0.27256301 0.061569002 -0.144679
-0.27144501 0.062956803 -0.144679
-0.26509401 0.070162699 -0.144679
-0.26285201 0.072618403 -0.144679
-0.25719801 0.078756496 -0.144679
-0.25425801 0.082009397 -0.144679
-0.25005999 0.087350197 -0.144679
-0.245664 0.094756402 -0.144679
-0.245077 0.095944002 -0.144679
-0.202695 -0.169892 -0.144679
-0.194102 -0.17022499 -0.144679
-0.17691401 -0.170523 -0.144679
-0.18208601 -0.170462 -0.144679
-0.185508 -0.170394 -0.144679
-0.16832 -0.170623 -0.144679
-0.15972701 -0.171344 -0.144679
-0.151133 -0.173816 -0.144679
0.072304703 -0.36197799 -0.144679
0.080898501 -0.36164299 -0.144679
0.089492299 -0.36133701 -0.144679
0.098085999 -0.36136001 -0.144679
0.10668 -0.36140099 -0.144679
0.115273 -0.36103499 -0.144679
0.123867 -0.361045 -0.144679
0.132461 -0.36127001 -0.144679
0.141055 -0.36127001 -0.144679
0.149648 -0.361844 -0.144679
0.158242 -0.36231601 -0.144679
0.16683599 -0.36285499 -0.144679
0.192617 -0.36944801 -0.144679
0.188215 -0.368119 -0.144679
0.20121101 -0.37302801 -0.144679
0.17543 -0.36410701 -0.144679
0.18402299 -0.36656401 -0.144679
0.226992 -0.38791701 -0.144679
0.221982 -0.385306 -0.144679
0.235586 -0.390946 -0.144679
0.24417999 -0.39191401 -0.144679
0.25277299 -0.39187899 -0.144679
0.26136699 -0.39095199 -0.144679
0.269961 -0.38948101 -0.144679
0.27855501 -0.38832501 -0.144679
0.28547901 -0.385306 -0.144679
0.209805 -0.37829399 -0.144679
0.207278 -0.37671199 -0.144679
0.218399 -0.38345599 -0.144679
0.287148 -0.38354301 -0.144679
0.29124099 -0.37671199 -0.144679
0.29574201 -0.368671 -0.144679
0.29607999 -0.368119 -0.144679
0.30094799 -0.359525 -0.144679
0.30433601 -0.35347801 -0.144679
0.30584201 -0.35093099 -0.144679
0.311133 -0.34233701 -0.144679
0.31292999 -0.338952 -0.144679
0.31615701 -0.33374399 -0.144679
0.32152301 -0.32816699 -0.144679
0.325394 -0.32515001 -0.144679
0.33011699 -0.32216901 -0.144679
0.33871099 -0.31674999 -0.144679
0.339019 -0.31655601 -0.144679
0.347305 -0.309746 -0.144679
0.34902 -0.307962 -0.144679
0.35589799 -0.300026 -0.144679
0.356383 -0.29936901 -0.144679
0.362187 -0.290775 -0.144679
0.364492 -0.28645399 -0.144679
0.366485 -0.28218099 -0.144679
0.37043199 -0.27358699 -0.144679
0.37308601 -0.26716799 -0.144679
0.373959 -0.264994 -0.144679
0.37798601 -0.25639999 -0.144679
0.38168001 -0.25003499 -0.144679
0.38316101 -0.247806 -0.144679
0.38889799 -0.23921201 -0.144679
0.39027399 -0.23682199 -0.144679
0.393381 -0.230619 -0.144679
0.396503 -0.22202501 -0.144679
0.398352 -0.213431 -0.144679
0.39886701 -0.210299 -0.144679
0.39990801 -0.20483699 -0.144679
0.40265501 -0.196244 -0.144679
0.40669999 -0.18765 -0.144679
0.40746099 -0.185893 -0.144679
0.40968499 -0.179056 -0.144679
0.33011699 0.093035802 -0.144679
0.32562101 0.095944002 -0.144679
0.33871099 0.088245504 -0.144679
0.40746099 -0.15294901 -0.144679
0.40520099 -0.14468101 -0.144679
0.40348199 -0.136087 -0.144679
0.40330601 -0.12749401 -0.144679
0.40531299 -0.1189 -0.144679
0.40746099 -0.112848 -0.144679
0.41062599 -0.170462 -0.144679
0.409601 -0.161869 -0.144679
0.40755001 -0.153275 -0.144679
0.408418 -0.110306 -0.144679
0.412817 -0.101712 -0.144679
0.41605499 -0.095839098 -0.144679
0.41739899 -0.093118504 -0.144679
0.42063001 -0.084524803 -0.144679
0.422306 -0.075930998 -0.144679
0.42294601 -0.067337297 -0.144679
0.42267501 -0.058743499 -0.144679
0.42116201 -0.050149798 -0.144679
0.41842899 -0.041556001 -0.144679
0.40746099 -0.020755701 -0.144679
0.40420601 -0.0157748 -0.144679
0.39886701 -0.0082453797 -0.144679
0.398123 -0.00718102 -0.144679
0.39027399 0.0071351798 -0.144679
0.38973799 0.0100065 -0.144679
0.392564 0.00141275 -0.144679
0.388787 0.018600199 -0.144679
0.38721201 0.027194001 -0.144679
0.41605499 -0.035521101 -0.144679
0.41481501 -0.0329623 -0.144679
0.40961099 -0.0243685 -0.144679
0.37308601 0.056864399 -0.144679
0.36970401 0.061569002 -0.144679
0.38441601 0.035787702 -0.144679
0.38168001 0.042362101 -0.144679
0.38065401 0.044381499 -0.144679
0.37551999 0.0529752 -0.144679
0.35589799 0.0737371 -0.144679
