# .PCD v0.7 - Point Cloud Data file format
VERSION 0.7
FIELDS x y z
SIZE 4 4 4
TYPE F F F
COUNT 1 1 1
WIDTH 1492
HEIGHT 1
VIEWPOINT 0 0 0 1 0 0 0
POINTS 1492
DATA ascii
-0.26605001 0.095944002 -0.136085
0.098085999 -0.36703199 -0.136085
0.132461 -0.368498 -0.136085
0.16683599 -0.37131199 -0.136085
0.20121101 -0.37887701 -0.136085
0.235586 -0.38765901 -0.136085
0.225082 -0.385306 -0.136085
0.269961 -0.385322 -0.136085
0.27000499 -0.385306 -0.136085
0.30433601 -0.359669 -0.136085
0.31174901 -0.35093099 -0.136085
0.33871099 -0.32032499 -0.136085
0.34210399 -0.31655601 -0.136085
0.37003601 -0.28218099 -0.136085
0.37308601 -0.27724099 -0.136085
0.38932401 -0.247806 -0.136085
0.40409899 -0.213431 -0.136085
0.40746099 -0.201773 -0.136085
0.41226 -0.179056 -0.136085
0.415876 -0.14468101 -0.136085
0.41955799 -0.110306 -0.136085
0.42474699 -0.075930998 -0.136085
0.422153 -0.041556001 -0.136085
0.40746099 -2.655e-05 -0.136085
0.396516 0.027194001 -0.136085
0.41030201 -0.00718102 -0.136085
0.37752301 0.061569002 -0.136085
0.37308601 0.067986503 -0.136085
0.34740099 0.095944002 -0.136085
-0.245664 0.118807 -0.136085
-0.23221301 0.130319 -0.136085
-0.211289 0.14352299 -0.136085
-0.28003901 0.31167999 -0.136085
-0.30687201 0.33656901 -0.136085
-0.31441399 0.35752499 -0.136085
-0.31650299 0.37094399 -0.136085
-0.245664 0.321713 -0.136085
-0.23739401 0.33656901 -0.136085
-0.233729 0.37094399 -0.136085
-0.17691401 0.157804 -0.136085
-0.146672 0.164694 -0.136085
-0.073789001 0.159913 -0.136085
-0.096243203 0.164694 -0.136085
-0.14253899 0.165327 -0.136085
-0.108164 0.166173 -0.136085
-0.039414 0.152923 -0.136085
-0.0050390102 0.151181 -0.136085
0.029336 0.15367401 -0.136085
0.063711002 0.158198 -0.136085
-0.31441399 0.397183 -0.136085
-0.31121501 0.40531901 -0.136085
-0.28003901 0.42277101 -0.136085
-0.245664 0.40102699 -0.136085
-0.248859 0.40531901 -0.136085
-0.073789001 0.427432 -0.136085
-0.078621201 0.43969399 -0.136085
-0.073789001 0.473093 -0.136085
-0.039414 0.41061199 -0.136085
-0.0050390102 0.41200301 -0.136085
0.029336 0.421702 -0.136085
0.0520753 0.43969399 -0.136085
-0.073391303 0.474069 -0.136085
-0.049793899 0.50844401 -0.136085
0.050228201 0.474069 -0.136085
0.032390401 0.50844401 -0.136085
-0.039414 0.51911199 -0.136085
-0.0050390102 0.54047501 -0.136085
0.029336 0.52091497 -0.136085
0.098085999 0.164042 -0.136085
0.101694 0.164694 -0.136085
0.132461 0.16858201 -0.136085
0.16683599 0.170837 -0.136085
0.20121101 0.172084 -0.136085
0.269961 0.155771 -0.136085
0.248401 0.164694 -0.136085
0.33871099 0.103747 -0.136085
0.30765 0.130319 -0.136085
0.30433601 0.132855 -0.136085
0.235586 0.16820399 -0.136085
-0.108164 -0.385306 -0.149992
-0.073789001 -0.385306 -0.14766
-0.108164 -0.31655601 -0.142442
-0.073789001 -0.28218099 -0.13852499
-0.17691401 -0.179056 -0.139825
-0.14253899 -0.179056 -0.148726
-0.108164 -0.213431 -0.14098001
-0.073789001 -0.213431 -0.14573701
-0.108164 -0.179056 -0.156037
-0.073789001 -0.179056 -0.16357601
-0.039414 -0.247806 -0.155204
-0.28003901 -0.110306 -0.15106501
-0.245664 -0.14468101 -0.14848
-0.211289 -0.14468101 -0.16116001
-0.245664 -0.110306 -0.16916101
-0.31441399 -0.075930998 -0.13862
-0.28003901 -0.075930998 -0.16336501
-0.31441399 -0.041556001 -0.143806
-0.28003901 -0.041556001 -0.165097
-0.31441399 -0.00718102 -0.14136501
-0.28003901 -0.00718102 -0.161405
-0.28003901 0.027194001 -0.15369
-0.245664 0.027194001 -0.169176
-0.28003901 0.061569002 -0.14214499
-0.245664 0.061569002 -0.16072799
-0.245664 0.095944002 -0.146182
-0.211289 0.095944002 -0.162662
-0.17691401 -0.14468101 -0.164891
-0.14253899 -0.14468101 -0.167016
-0.108164 -0.14468101 -0.17023499
0.16683599 -0.385306 -0.16959199
0.20121101 -0.385306 -0.157372
0.269961 -0.385306 -0.136457
0.30433601 -0.35093099 -0.15698101
0.33871099 -0.31655601 -0.14354999
0.37308601 -0.247806 -0.15847901
0.40746099 -0.179056 -0.142612
0.33871099 0.061569002 -0.162736
0.30433601 0.095944002 -0.15920401
0.33871099 0.095944002 -0.14112499
0.40746099 -0.14468101 -0.14704201
0.40746099 -0.110306 -0.152293
0.40746099 -0.075930998 -0.158097
0.40746099 -0.041556001 -0.153862
0.40746099 -0.00718102 -0.139385
0.37308601 0.027194001 -0.157021
0.37308601 0.061569002 -0.13970099
-0.211289 0.130319 -0.143544
-0.31441399 0.37094399 -0.166996
-0.17691401 0.130319 -0.154551
-0.14253899 0.130319 -0.15979999
-0.14253899 0.164694 -0.13658001
-0.108164 0.130319 -0.16061001
-0.073789001 0.130319 -0.159252
-0.108164 0.164694 -0.13725001
-0.039414 0.130319 -0.15719099
-0.0050390102 0.130319 -0.15719999
0.029336 0.130319 -0.160561
0.063711002 0.130319 -0.164498
-0.31441399 0.40531901 -0.14837299
-0.28003901 0.43969399 -0.16767
-0.245664 0.40531901 -0.14355899
-0.073789001 0.43969399 -0.138355
-0.039414 0.43969399 -0.151517
-0.0050390102 0.43969399 -0.159311
0.029336 0.43969399 -0.16250999
-0.039414 0.474069 -0.158489
-0.039414 0.50844401 -0.14766499
0.063711002 0.474069 -0.14495499
0.063711002 0.50844401 -0.15744101
0.029336 0.54281902 -0.14412101
0.063711002 0.54281902 -0.16882101
0.098085999 0.130319 -0.167555
0.132461 0.130319 -0.17024
0.132461 0.164694 -0.139818
0.16683599 0.164694 -0.142387
0.20121101 0.164694 -0.144017
0.235586 0.130319 -0.167096
0.269961 0.130319 -0.15513299
0.235586 0.164694 -0.139731
0.30433601 0.130319 -0.137905
-0.091077402 -0.38422799 -0.15178999
-0.31381699 0.387014 -0.154743
-0.211289 -0.38388699 -0.10171
-0.220502 -0.35093099 -0.10171
-0.211289 -0.343501 -0.10171
-0.245664 -0.186497 -0.10171
-0.25947499 -0.179056 -0.10171
-0.211289 -0.20408399 -0.10171
-0.17691401 -0.39010701 -0.10171
-0.206379 -0.385306 -0.10171
-0.14253899 -0.39194 -0.10171
-0.108164 -0.38949001 -0.10171
-0.089274697 -0.385306 -0.10171
-0.18062 -0.31655601 -0.10171
-0.073789001 -0.38018 -0.10171
-0.039414 -0.36999699 -0.10171
-0.0050390102 -0.36618799 -0.10171
0.029336 -0.364674 -0.10171
0.063711002 -0.36345899 -0.10171
-0.17691401 -0.312159 -0.10171
-0.16636901 -0.28218099 -0.10171
-0.17229401 -0.247806 -0.10171
-0.17691401 -0.23694 -0.10171
-0.196089 -0.213431 -0.10171
-0.34878901 -0.070809998 -0.10171
-0.35415 -0.041556001 -0.10171
-0.28003901 -0.16547801 -0.10171
-0.30531201 -0.14468101 -0.10171
-0.31441399 -0.134859 -0.10171
-0.33187699 -0.110306 -0.10171
-0.347361 -0.075930998 -0.10171
-0.35441899 -0.00718102 -0.10171
-0.34878901 0.026028899 -0.10171
-0.34849599 0.027194001 -0.10171
-0.33588701 0.061569002 -0.10171
-0.31965601 0.095944002 -0.10171
0.098085999 -0.36256701 -0.10171
0.132461 -0.36212999 -0.10171
0.16683599 -0.36393201 -0.10171
0.20121101 -0.37316701 -0.10171
0.235586 -0.38585901 -0.10171
0.23377 -0.385306 -0.10171
0.269961 -0.387523 -0.10171
0.27911901 -0.385306 -0.10171
0.30433601 -0.372033 -0.10171
0.33039099 -0.35093099 -0.10171
0.33871099 -0.34445599 -0.10171
0.37308601 -0.31830201 -0.10171
0.37547401 -0.31655601 -0.10171
0.40746099 -0.29126599 -0.10171
0.41624001 -0.28218099 -0.10171
0.42999899 -0.247806 -0.10171
0.43276599 -0.213431 -0.10171
0.43645799 -0.179056 -0.10171
0.43930501 -0.14468101 -0.10171
0.44164199 -0.110306 -0.10171
0.441836 -0.107652 -0.10171
0.44416901 -0.075930998 -0.10171
0.44312799 -0.041556001 -0.10171
0.441836 -0.032960299 -0.10171
0.43553799 -0.00718102 -0.10171
0.422346 0.027194001 -0.10171
0.40746099 0.0601153 -0.10171
0.40672901 0.061569002 -0.10171
0.38394701 0.095944002 -0.10171
-0.31441399 0.112328 -0.10171
-0.31312501 0.130319 -0.10171
-0.31441399 0.14090601 -0.10171
-0.32048401 0.164694 -0.10171
-0.325551 0.19906899 -0.10171
-0.318093 0.23344401 -0.10171
-0.31441399 0.24497899 -0.10171
-0.31002599 0.26781899 -0.10171
-0.313537 0.302194 -0.10171
-0.211289 0.24737 -0.10171
-0.21950801 0.26781899 -0.10171
-0.223997 0.302194 -0.10171
-0.31441399 0.30620301 -0.10171
-0.31950599 0.33656901 -0.10171
-0.31752199 0.37094399 -0.10171
-0.225501 0.33656901 -0.10171
-0.237746 0.37094399 -0.10171
-0.17691401 0.208014 -0.10171
-0.20432299 0.23344401 -0.10171
-0.14253899 0.20072 -0.10171
-0.108164 0.197428 -0.10171
-0.123779 0.19906899 -0.10171
-0.073789001 0.189833 -0.10171
-0.039414 0.178753 -0.10171
-0.0050390102 0.17439701 -0.10171
0.029336 0.176853 -0.10171
0.063711002 0.182817 -0.10171
-0.31441399 0.38116601 -0.10171
-0.28003901 0.40376699 -0.10171
-0.245664 0.38336599 -0.10171
-0.108164 0.378198 -0.10171
-0.13121399 0.40531901 -0.10171
-0.073789001 0.37507099 -0.10171
-0.126183 0.43969399 -0.10171
-0.108164 0.47077 -0.10171
-0.105446 0.474069 -0.10171
-0.073789001 0.50222498 -0.10171
-0.039414 0.382388 -0.10171
-0.0050390102 0.39817101 -0.10171
0.0066137598 0.40531901 -0.10171
0.020227101 0.43969399 -0.10171
-0.0050390102 0.47299901 -0.10171
-0.0055407598 0.474069 -0.10171
-0.062370401 0.50844401 -0.10171
-0.021149199 0.50844401 -0.10171
-0.039414 0.51428801 -0.10171
0.098085999 0.19196901 -0.10171
0.132461 0.198294 -0.10171
0.142322 0.19906899 -0.10171
0.16683599 0.199985 -0.10171
0.20121101 0.19981 -0.10171
0.33871099 0.141023 -0.10171
0.3062 0.164694 -0.10171
0.235586 0.195796 -0.10171
0.214527 0.19906899 -0.10171
0.269961 0.184034 -0.10171
0.30433601 0.16577201 -0.10171
0.37308601 0.109175 -0.10171
0.351594 0.130319 -0.10171
-0.211289 -0.35093099 -0.105338
-0.245664 -0.179056 -0.11193
-0.211289 -0.179056 -0.13009299
-0.17691401 -0.385306 -0.109462
-0.14253899 -0.385306 -0.120754
-0.17691401 -0.35093099 -0.11797
-0.14253899 -0.35093099 -0.13309801
-0.17691401 -0.31655601 -0.103685
-0.14253899 -0.31655601 -0.121316
-0.14253899 -0.28218099 -0.115657
-0.14253899 -0.247806 -0.121678
-0.108164 -0.28218099 -0.129188
-0.108164 -0.247806 -0.13131399
-0.073789001 -0.247806 -0.13489699
-0.17691401 -0.213431 -0.115468
-0.14253899 -0.213431 -0.133636
-0.34878901 -0.041556001 -0.109066
-0.28003901 -0.14468101 -0.126169
-0.31441399 -0.110306 -0.122448
-0.34878901 -0.00718102 -0.108999
-0.31441399 0.027194001 -0.133733
-0.31441399 0.061569002 -0.120398
-0.31441399 0.095944002 -0.105629
-0.28003901 0.095944002 -0.128822
0.37308601 -0.31655601 -0.102889
0.37308601 -0.28218099 -0.131212
0.40746099 -0.28218099 -0.104573
0.40746099 -0.247806 -0.116243
0.40746099 -0.213431 -0.13132501
0.441836 -0.075930998 -0.106981
0.441836 -0.041556001 -0.104589
0.40746099 0.027194001 -0.123659
0.37308601 0.095944002 -0.114929
-0.28003901 0.130319 -0.117165
-0.31441399 0.164694 -0.10398
-0.28003901 0.164694 -0.114064
-0.245664 0.130319 -0.13130499
-0.245664 0.164694 -0.120052
-0.211289 0.164694 -0.124997
-0.31441399 0.19906899 -0.105749
-0.28003901 0.19906899 -0.114124
-0.31441399 0.23344401 -0.103139
-0.28003901 0.23344401 -0.112031
-0.245664 0.19906899 -0.115116
-0.211289 0.19906899 -0.111164
-0.245664 0.23344401 -0.111842
-0.211289 0.23344401 -0.103961
-0.28003901 0.26781899 -0.111162
-0.28003901 0.302194 -0.124929
-0.245664 0.26781899 -0.109983
-0.245664 0.302194 -0.118082
-0.31441399 0.33656901 -0.113898
-0.17691401 0.164694 -0.13115001
-0.073789001 0.164694 -0.131772
-0.17691401 0.19906899 -0.106574
-0.14253899 0.19906899 -0.103532
-0.039414 0.164694 -0.122637
-0.0050390102 0.164694 -0.118727
0.029336 0.164694 -0.121944
0.063711002 0.164694 -0.12801699
-0.28003901 0.40531901 -0.105032
-0.108164 0.40531901 -0.113829
-0.073789001 0.40531901 -0.127078
-0.108164 0.43969399 -0.117221
-0.073789001 0.474069 -0.135791
-0.039414 0.40531901 -0.131933
-0.0050390102 0.40531901 -0.12732901
0.029336 0.43969399 -0.10793
-0.0050390102 0.474069 -0.102023
-0.0050390102 0.50844401 -0.11099
0.029336 0.474069 -0.124518
0.029336 0.50844401 -0.134238
0.098085999 0.164694 -0.13538601
0.16683599 0.19906899 -0.103073
0.20121101 0.19906899 -0.102857
0.269961 0.164694 -0.126965
0.33871099 0.130319 -0.113696
0.30433601 0.164694 -0.103263
-0.245664 -0.39248699 -0.067334898
-0.259846 -0.385306 -0.067334898
-0.211289 -0.397522 -0.067334898
-0.264276 -0.35093099 -0.067334898
-0.245664 -0.33206901 -0.067334898
-0.222785 -0.31655601 -0.067334898
-0.211289 -0.30797401 -0.067334898
-0.28003901 -0.18724699 -0.067334898
-0.291206 -0.179056 -0.067334898
-0.211289 -0.228275 -0.067334898
-0.235021 -0.213431 -0.067334898
-0.245664 -0.208703 -0.067334898
-0.17691401 -0.39639401 -0.067334898
-0.14253899 -0.394348 -0.067334898
-0.108164 -0.390351 -0.067334898
-0.084353499 -0.385306 -0.067334898
-0.073789001 -0.38233301 -0.067334898
-0.039414 -0.37292501 -0.067334898
-0.0050390102 -0.368119 -0.067334898
0.029336 -0.36610499 -0.067334898
0.063711002 -0.364833 -0.067334898
-0.194729 -0.28218099 -0.067334898
-0.197081 -0.247806 -0.067334898
-0.34878901 -0.117189 -0.067334898
-0.35238999 -0.110306 -0.067334898
-0.36794201 -0.075930998 -0.067334898
-0.37612599 -0.041556001 -0.067334898
-0.31441399 -0.15896501 -0.067334898
-0.32855099 -0.14468101 -0.067334898
-0.37684199 -0.00718102 -0.067334898
-0.37226599 0.027194001 -0.067334898
-0.36250001 0.061569002 -0.067334898
-0.355032 0.095944002 -0.067334898
0.098085999 -0.36380401 -0.067334898
0.132461 -0.36369699 -0.067334898
0.16683599 -0.368193 -0.067334898
0.20121101 -0.379457 -0.067334898
0.235586 -0.38805199 -0.067334898
0.220695 -0.385306 -0.067334898
0.269961 -0.38911399 -0.067334898
0.29542899 -0.385306 -0.067334898
0.30433601 -0.38294199 -0.067334898
0.33871099 -0.37020701 -0.067334898
0.37308601 -0.35739201 -0.067334898
0.39372301 -0.35093099 -0.067334898
0.40746099 -0.34588799 -0.067334898
0.441836 -0.328435 -0.067334898
0.461788 -0.31655601 -0.067334898
0.47621101 -0.305985 -0.067334898
0.47621101 -0.186638 -0.067334898
0.46803799 -0.179056 -0.067334898
0.49894699 -0.28218099 -0.067334898
0.51058602 -0.26023301 -0.067334898
0.51377898 -0.247806 -0.067334898
0.51058602 -0.216251 -0.067334898
0.50902098 -0.213431 -0.067334898
0.457452 -0.14468101 -0.067334898
0.45704401 -0.110306 -0.067334898
0.457726 -0.075930998 -0.067334898
0.45635501 -0.041556001 -0.067334898
0.45004299 -0.00718102 -0.067334898
0.441836 0.0210869 -0.067334898
0.439769 0.027194001 -0.067334898
0.40746099 0.089328103 -0.067334898
0.403375 0.095944002 -0.067334898
0.423354 0.061569002 -0.067334898
-0.36140001 0.130319 -0.067334898
-0.37536401 0.164694 -0.067334898
-0.37796199 0.19906899 -0.067334898
-0.37007499 0.23344401 -0.067334898
-0.35693201 0.26781899 -0.067334898
-0.34878901 0.29555699 -0.067334898
-0.34734899 0.302194 -0.067334898
-0.33906099 0.33656901 -0.067334898
-0.32111701 0.37094399 -0.067334898
-0.211289 0.36555099 -0.067334898
-0.22755501 0.37094399 -0.067334898
-0.14253899 0.23238599 -0.067334898
-0.14376301 0.23344401 -0.067334898
-0.108164 0.214406 -0.067334898
-0.073789001 0.204642 -0.067334898
-0.039414 0.195407 -0.067334898
-0.052805301 0.19906899 -0.067334898
-0.0050390102 0.19019499 -0.067334898
0.029336 0.19337 -0.067334898
0.058125298 0.19906899 -0.067334898
0.063711002 0.20028099 -0.067334898
-0.167522 0.26781899 -0.067334898
-0.174638 0.302194 -0.067334898
-0.147366 0.33656901 -0.067334898
-0.186609 0.37094399 -0.067334898
-0.14253899 0.337556 -0.067334898
-0.108164 0.34675401 -0.067334898
-0.073789001 0.363543 -0.067334898
-0.060733698 0.37094399 -0.067334898
-0.31441399 0.37836 -0.067334898
-0.28003901 0.391693 -0.067334898
-0.245664 0.38009501 -0.067334898
-0.17691401 0.39231101 -0.067334898
-0.171074 0.40531901 -0.067334898
-0.147688 0.43969399 -0.067334898
-0.14253899 0.445732 -0.067334898
-0.108164 0.473966 -0.067334898
-0.107988 0.474069 -0.067334898
-0.073789001 0.48314399 -0.067334898
-0.039414 0.38569599 -0.067334898
-0.0257052 0.40531901 -0.067334898
-0.0373202 0.43969399 -0.067334898
-0.039414 0.442164 -0.067334898
-0.058167301 0.474069 -0.067334898
0.098085999 0.208684 -0.067334898
0.132461 0.215693 -0.067334898
0.16683599 0.21897601 -0.067334898
0.20121101 0.219041 -0.067334898
0.33871099 0.163277 -0.067334898
0.33672199 0.164694 -0.067334898
0.235586 0.21404 -0.067334898
0.269961 0.20295601 -0.067334898
0.30433601 0.186324 -0.067334898
0.279796 0.19906899 -0.067334898
0.37567699 0.130319 -0.067334898
0.37308601 0.13304 -0.067334898
-0.245664 -0.385306 -0.082501799
-0.211289 -0.385306 -0.100349
-0.245664 -0.35093099 -0.0868707
-0.211289 -0.31655601 -0.079677597
-0.28003901 -0.179056 -0.0817293
-0.211289 -0.213431 -0.090047799
-0.17691401 -0.28218099 -0.092579603
-0.17691401 -0.247806 -0.097067997
-0.34878901 -0.110306 -0.075212099
-0.34878901 -0.075930998 -0.099602297
-0.31441399 -0.14468101 -0.090216801
-0.34878901 0.027194001 -0.101355
-0.34878901 0.061569002 -0.087301098
-0.34878901 0.095944002 -0.074587502
0.33871099 -0.35093099 -0.093672402
0.37308601 -0.35093099 -0.074617498
0.40746099 -0.31655601 -0.090563998
0.441836 -0.31655601 -0.078081802
0.441836 -0.28218099 -0.095320597
0.47621101 -0.28218099 -0.082393602
0.441836 -0.247806 -0.097816102
0.47621101 -0.247806 -0.088067703
0.441836 -0.213431 -0.094688199
0.47621101 -0.213431 -0.079187497
0.441836 -0.179056 -0.093400799
0.51058602 -0.247806 -0.069943197
0.441836 -0.14468101 -0.096780799
0.441836 -0.110306 -0.10132
0.441836 -0.00718102 -0.089143902
0.40746099 0.061569002 -0.100412
-0.34878901 0.130319 -0.077601701
-0.34878901 0.164694 -0.087121204
-0.34878901 0.19906899 -0.089972399
-0.34878901 0.23344401 -0.084290899
-0.31441399 0.130319 -0.101033
-0.34878901 0.26781899 -0.074755996
-0.31441399 0.26781899 -0.099578403
-0.31441399 0.302194 -0.10092
-0.211289 0.26781899 -0.098068804
-0.211289 0.302194 -0.0918402
-0.211289 0.33656901 -0.082982101
-0.17691401 0.23344401 -0.089914903
-0.108164 0.19906899 -0.099031597
-0.073789001 0.19906899 -0.084234796
0.063711002 0.19906899 -0.070662104
-0.17691401 0.26781899 -0.075490698
-0.17691401 0.302194 -0.068715803
-0.17691401 0.33656901 -0.070178702
-0.17691401 0.37094399 -0.071408197
-0.14253899 0.37094399 -0.087173499
-0.108164 0.37094399 -0.096744098
-0.073789001 0.37094399 -0.096120901
-0.14253899 0.40531901 -0.094247602
-0.14253899 0.43969399 -0.0805251
-0.0050390102 0.40531901 -0.083580099
-0.0050390102 0.43969399 -0.0862877
-0.039414 0.474069 -0.078542098
-0.039414 0.50844401 -0.0960069
0.098085999 0.19906899 -0.089727402
0.132461 0.19906899 -0.100502
0.235586 0.19906899 -0.096312501
0.269961 0.19906899 -0.076140098
0.37308601 0.130319 -0.072779603
-0.245664 -0.39630201 -0.032959901
-0.27186999 -0.385306 -0.032959901
-0.211289 -0.39713201 -0.032959901
-0.276521 -0.35093099 -0.032959901
-0.245664 -0.320279 -0.032959901
-0.23887099 -0.31655601 -0.032959901
-0.211289 -0.29564601 -0.032959901
-0.28003901 -0.20288999 -0.032959901
-0.309221 -0.179056 -0.032959901
-0.245664 -0.220735 -0.032959901
-0.262629 -0.213431 -0.032959901
-0.211289 -0.243623 -0.032959901
-0.17691401 -0.394481 -0.032959901
-0.14253899 -0.39188901 -0.032959901
-0.108164 -0.389195 -0.032959901
-0.073789001 -0.38542399 -0.032959901
-0.073009297 -0.385306 -0.032959901
-0.039414 -0.378025 -0.032959901
-0.0050390102 -0.37068 -0.032959901
0.029336 -0.36728099 -0.032959901
0.063711002 -0.36576301 -0.032959901
-0.203666 -0.28218099 -0.032959901
-0.207938 -0.247806 -0.032959901
-0.34878901 -0.13707601 -0.032959901
-0.365612 -0.110306 -0.032959901
-0.381203 -0.075930998 -0.032959901
-0.38316399 -0.069709703 -0.032959901
-0.38881701 -0.041556001 -0.032959901
-0.31441399 -0.174153 -0.032959901
-0.34279299 -0.14468101 -0.032959901
-0.39021701 -0.00718102 -0.032959901
-0.38696 0.027194001 -0.032959901
-0.38316399 0.0494943 -0.032959901
-0.380685 0.061569002 -0.032959901
-0.37915301 0.095944002 -0.032959901
0.098085999 -0.36461601 -0.032959901
0.132461 -0.365987 -0.032959901
0.16683599 -0.374632 -0.032959901
0.20121101 -0.38476199 -0.032959901
0.235586 -0.38773701 -0.032959901
0.204043 -0.385306 -0.032959901
0.269961 -0.38685799 -0.032959901
0.30433601 -0.38654101 -0.032959901
0.329124 -0.385306 -0.032959901
0.33871099 -0.38419101 -0.032959901
0.37308601 -0.37728101 -0.032959901
0.40746099 -0.36528099 -0.032959901
0.439601 -0.35093099 -0.032959901
0.441836 -0.34984899 -0.032959901
0.47621101 -0.32891601 -0.032959901
0.493444 -0.31655601 -0.032959901
0.51058602 -0.300194 -0.032959901
0.52447802 -0.28218099 -0.032959901
0.54123598 -0.247806 -0.032959901
0.54496098 -0.227331 -0.032959901
0.54496098 -0.208661 -0.032959901
0.532754 -0.179056 -0.032959901
0.54528499 -0.213431 -0.032959901
0.47621101 -0.13689101 -0.032959901
0.468858 -0.110306 -0.032959901
0.46654499 -0.075930998 -0.032959901
0.464654 -0.041556001 -0.032959901
0.51058602 -0.16353001 -0.032959901
0.48157901 -0.14468101 -0.032959901
0.459095 -0.00718102 -0.032959901
0.448603 0.027194001 -0.032959901
0.441836 0.0455576 -0.032959901
0.43439299 0.061569002 -0.032959901
0.41293901 0.095944002 -0.032959901
-0.38316399 0.11268 -0.032959901
-0.390479 0.130319 -0.032959901
-0.40176001 0.164694 -0.032959901
-0.40251601 0.19906899 -0.032959901
-0.39588401 0.23344401 -0.032959901
-0.384399 0.26781899 -0.032959901
-0.38316399 0.27125901 -0.032959901
-0.37347901 0.302194 -0.032959901
-0.36148801 0.33656901 -0.032959901
-0.34878901 0.358273 -0.032959901
-0.33458799 0.37094399 -0.032959901
-0.108164 0.22628701 -0.032959901
-0.119536 0.23344401 -0.032959901
-0.073789001 0.212301 -0.032959901
-0.0050390102 0.19855499 -0.032959901
-0.017037001 0.19906899 -0.032959901
-0.039414 0.202894 -0.032959901
0.0082131596 0.19906899 -0.032959901
0.029336 0.202051 -0.032959901
0.063711002 0.210164 -0.032959901
-0.14253899 0.26533401 -0.032959901
-0.14334901 0.26781899 -0.032959901
-0.14370801 0.302194 -0.032959901
-0.14253899 0.305399 -0.032959901
-0.119557 0.33656901 -0.032959901
-0.108164 0.34804401 -0.032959901
-0.0915327 0.37094399 -0.032959901
-0.31441399 0.38138899 -0.032959901
-0.28003901 0.38796499 -0.032959901
-0.245664 0.38550499 -0.032959901
-0.211289 0.39046401 -0.032959901
-0.18581 0.40531901 -0.032959901
-0.17691401 0.41207701 -0.032959901
-0.14253899 0.43399701 -0.032959901
-0.085066497 0.40531901 -0.032959901
-0.108164 0.43729699 -0.032959901
0.098085999 0.21898399 -0.032959901
0.132461 0.22577401 -0.032959901
0.16683599 0.229664 -0.032959901
0.20121101 0.23029 -0.032959901
0.235586 0.2261 -0.032959901
0.269961 0.214807 -0.032959901
0.30433601 0.198388 -0.032959901
0.303054 0.19906899 -0.032959901
0.33871099 0.17502899 -0.032959901
0.40746099 0.104534 -0.032959901
0.387577 0.130319 -0.032959901
0.37308601 0.146172 -0.032959901
0.35245401 0.164694 -0.032959901
-0.245664 -0.213431 -0.0563678
-0.073789001 -0.385306 -0.035369799
-0.38316399 -0.041556001 -0.050629701
-0.38316399 -0.00718102 -0.052873202
-0.38316399 0.027194001 -0.043768398
0.30433601 -0.385306 -0.054570299
0.40746099 -0.35093099 -0.061275501
0.47621101 -0.31655601 -0.0558777
0.47621101 -0.179056 -0.063249603
0.51058602 -0.28218099 -0.0553535
0.51058602 -0.213431 -0.066480897
0.54496098 -0.213431 -0.033488501
0.51058602 -0.179056 -0.047474001
0.47621101 -0.14468101 -0.039643001
0.441836 0.027194001 -0.061142601
0.40746099 0.095944002 -0.0553439
-0.38316399 0.130319 -0.043804899
-0.38316399 0.164694 -0.059273299
-0.38316399 0.19906899 -0.061584398
-0.38316399 0.23344401 -0.052763
-0.38316399 0.26781899 -0.0351694
-0.34878901 0.302194 -0.065602399
-0.34878901 0.33656901 -0.051532
-0.211289 0.37094399 -0.062802002
-0.14253899 0.23344401 -0.066198997
-0.039414 0.19906899 -0.053704701
0.029336 0.19906899 -0.047565501
-0.14253899 0.33656901 -0.066537902
-0.073789001 0.37094399 -0.048763301
-0.17691401 0.40531901 -0.059751201
-0.14253899 0.43969399 -0.040204
-0.073789001 0.40531901 -0.038793702
-0.108164 0.43969399 -0.034024999
-0.073789001 0.43969399 -0.046546601
-0.073789001 0.474069 -0.0616384
-0.039414 0.40531901 -0.059258699
-0.039414 0.43969399 -0.066195399
0.33871099 0.164694 -0.064024501
-0.245664 -0.39102799 0.00141507
-0.258782 -0.385306 0.00141507
-0.211289 -0.394981 0.00141507
-0.26682401 -0.35093099 0.00141507
-0.245664 -0.32836401 0.00141507
-0.225935 -0.31655601 0.00141507
-0.211289 -0.30783001 0.00141507
-0.31441399 -0.181104 0.00141507
-0.31654301 -0.179056 0.00141507
-0.28003901 -0.21023899 0.00141507
-0.245664 -0.227452 0.00141507
-0.27493799 -0.213431 0.00141507
-0.211289 -0.244616 0.00141507
-0.17691401 -0.392023 0.00141507
-0.14253899 -0.386998 0.00141507
-0.13094699 -0.385306 0.00141507
-0.108164 -0.383315 0.00141507
-0.073789001 -0.38352999 0.00141507
-0.039414 -0.381439 0.00141507
-0.0050390102 -0.37375301 0.00141507
0.029336 -0.36846599 0.00141507
0.063711002 -0.36650199 0.00141507
-0.193315 -0.28218099 0.00141507
-0.206633 -0.247806 0.00141507
-0.34878901 -0.144785 0.00141507
-0.34887099 -0.14468101 0.00141507
-0.37244099 -0.110306 0.00141507
-0.38316399 -0.0869845 0.00141507
-0.387061 -0.075930998 0.00141507
-0.39680201 -0.041556001 0.00141507
-0.400049 -0.00718102 0.00141507
-0.39719701 0.027194001 0.00141507
-0.390798 0.061569002 0.00141507
-0.392593 0.095944002 0.00141507
0.20121101 -0.38709301 0.00141507
0.188251 -0.385306 0.00141507
0.098085999 -0.36523601 0.00141507
0.132461 -0.36817199 0.00141507
0.16683599 -0.37897399 0.00141507
0.235586 -0.38663301 0.00141507
0.246572 -0.385306 0.00141507
0.33871099 -0.38720199 0.00141507
0.304391 -0.385306 0.00141507
0.269961 -0.38354 0.00141507
0.30433601 -0.385299 0.00141507
0.36346099 -0.385306 0.00141507
0.37308601 -0.38348201 0.00141507
0.40746099 -0.372545 0.00141507
0.441836 -0.35649401 0.00141507
0.453565 -0.35093099 0.00141507
0.47621101 -0.338173 0.00141507
0.50583202 -0.31655601 0.00141507
0.51058602 -0.31231201 0.00141507
0.53677899 -0.28218099 0.00141507
0.54496098 -0.267598 0.00141507
0.55243999 -0.247806 0.00141507
0.559304 -0.213431 0.00141507
0.55228901 -0.179056 0.00141507
0.47621101 -0.112505 0.00141507
0.47549701 -0.110306 0.00141507
0.46982899 -0.075930998 0.00141507
0.46740001 -0.041556001 0.00141507
0.54496098 -0.166765 0.00141507
0.51355201 -0.14468101 0.00141507
0.51058602 -0.143635 0.00141507
0.46200001 -0.00718102 0.00141507
0.45172301 0.027194001 0.00141507
0.441836 0.052897301 0.00141507
0.43789199 0.061569002 0.00141507
0.41686901 0.095944002 0.00141507
-0.417539 0.15631101 0.00141507
-0.41855201 0.164694 0.00141507
-0.40921101 0.130319 0.00141507
-0.41833901 0.19906899 0.00141507
-0.417539 0.206242 0.00141507
-0.412072 0.23344401 0.00141507
-0.40052399 0.26781899 0.00141507
-0.39244801 0.302194 0.00141507
-0.38536701 0.33656901 0.00141507
-0.38316399 0.34255001 0.00141507
-0.357335 0.37094399 0.00141507
-0.108164 0.231857 0.00141507
-0.110255 0.23344401 0.00141507
-0.073789001 0.214929 0.00141507
-0.039414 0.20558999 0.00141507
-0.0050390102 0.201829 0.00141507
0.029336 0.206113 0.00141507
0.063711002 0.215138 0.00141507
-0.13552099 0.26781899 0.00141507
-0.141304 0.302194 0.00141507
-0.1373 0.33656901 0.00141507
-0.136777 0.37094399 0.00141507
-0.34878901 0.37516999 0.00141507
-0.31441399 0.38642001 0.00141507
-0.28003901 0.390084 0.00141507
-0.245664 0.39044601 0.00141507
-0.211289 0.393361 0.00141507
-0.17691401 0.39685601 0.00141507
-0.14253899 0.38347301 0.00141507
0.098085999 0.223721 0.00141507
0.132461 0.22992601 0.00141507
0.162733 0.23344401 0.00141507
0.235586 0.230809 0.00141507
0.218574 0.23344401 0.00141507
0.269961 0.22019599 0.00141507
0.33871099 0.18119299 0.00141507
0.31213599 0.19906899 0.00141507
0.30433601 0.20321301 0.00141507
0.16683599 0.23379201 0.00141507
0.20121101 0.23466501 0.00141507
0.40746099 0.110398 0.00141507
0.39236501 0.130319 0.00141507
0.37308601 0.151976 0.00141507
0.359492 0.164694 0.00141507
-0.31441399 -0.179056 -0.0134504
-0.108164 -0.385306 -0.0072355298
-0.073789001 -0.385306 -0.0151021
-0.34878901 -0.14468101 0.00038946001
-0.38316399 -0.075930998 -0.0244582
-0.38316399 0.061569002 -0.0260641
-0.38316399 0.095944002 -0.024703201
0.20121101 -0.385306 -0.026413999
0.269961 -0.385306 -0.0212158
0.30433601 -0.385306 0.00130033
0.33871099 -0.385306 -0.026167899
0.441836 -0.35093099 -0.0294316
0.54496098 -0.247806 -0.024705799
0.54496098 -0.179056 -0.016927199
0.51058602 -0.14468101 -0.00195861
-0.417539 0.164694 -0.00132793
-0.417539 0.19906899 -0.00087594998
-0.38316399 0.302194 -0.016360899
-0.38316399 0.33656901 -0.00208038
-0.34878901 0.37094399 -0.0105606
-0.0050390102 0.19906899 -0.029570101
-0.14253899 0.26781899 -0.030849099
-0.14253899 0.302194 -0.0291203
-0.108164 0.37094399 -0.019731499
-0.17691401 0.40531901 -0.0131541
-0.14253899 0.40531901 -0.0093899397
-0.108164 0.40531901 -0.0215137
0.16683599 0.23344401 -0.0039537498
0.20121101 0.23344401 -0.0127034
0.30433601 0.19906899 -0.029709499
0.31993499 -0.38582799 -0.0146595
-0.211289 -0.38894701 0.03579
-0.224492 -0.385306 0.03579
-0.23611701 -0.35093099 0.03579
-0.211289 -0.32921201 0.03579
-0.31441399 -0.181133 0.03579
-0.31658 -0.179056 0.03579
-0.28003901 -0.21046001 0.03579
-0.245664 -0.227832 0.03579
-0.27537701 -0.213431 0.03579
-0.211289 -0.24078301 0.03579
-0.17691401 -0.38935599 0.03579
-0.153053 -0.385306 0.03579
-0.14253899 -0.383219 0.03579
-0.19162001 -0.31655601 0.03579
-0.108164 -0.377823 0.03579
-0.073789001 -0.37968001 0.03579
-0.039414 -0.381497 0.03579
-0.0050390102 -0.37548599 0.03579
0.029336 -0.36921799 0.03579
0.063711002 -0.36699301 0.03579
-0.17691401 -0.29788801 0.03579
-0.173986 -0.28218099 0.03579
-0.17691401 -0.265764 0.03579
-0.19453 -0.247806 0.03579
-0.34878901 -0.144393 0.03579
-0.37259099 -0.110306 0.03579
-0.38316399 -0.088864699 0.03579
-0.38798699 -0.075930998 0.03579
-0.399409 -0.041556001 0.03579
-0.34856701 -0.14468101 0.03579
-0.40414399 -0.00718102 0.03579
-0.40142199 0.027194001 0.03579
-0.39454001 0.061569002 0.03579
-0.39832601 0.095944002 0.03579
0.20121101 -0.387968 0.03579
0.185451 -0.385306 0.03579
0.098085999 -0.36565399 0.03579
0.132461 -0.368487 0.03579
0.16683599 -0.37942299 0.03579
0.235586 -0.38841501 0.03579
0.264036 -0.385306 0.03579
0.33871099 -0.38649699 0.03579
0.30675399 -0.385306 0.03579
0.269961 -0.38478601 0.03579
0.30433601 -0.38511401 0.03579
0.35857299 -0.385306 0.03579
0.37308601 -0.38270101 0.03579
0.40746099 -0.371674 0.03579
0.441836 -0.356215 0.03579
0.45364299 -0.35093099 0.03579
0.47621101 -0.338871 0.03579
0.50771499 -0.31655601 0.03579
0.51058602 -0.31410399 0.03579
0.53918999 -0.28218099 0.03579
0.54496098 -0.27235699 0.03579
0.55493897 -0.247806 0.03579
0.56221801 -0.213431 0.03579
0.55632001 -0.179056 0.03579
0.47621101 -0.109032 0.03579
0.469432 -0.075930998 0.03579
0.46635601 -0.041556001 0.03579
0.54496098 -0.159986 0.03579
0.52462202 -0.14468101 0.03579
0.51058602 -0.139275 0.03579
0.47671899 -0.110306 0.03579
0.46049201 -0.00718102 0.03579
0.45018199 0.027194001 0.03579
0.441836 0.049752001 0.03579
0.436667 0.061569002 0.03579
0.41636699 0.095944002 0.03579
-0.417539 0.13079201 0.03579
-0.42794999 0.164694 0.03579
-0.41729501 0.130319 0.03579
-0.42750701 0.19906899 0.03579
-0.41962999 0.23344401 0.03579
-0.417539 0.240702 0.03579
-0.41110101 0.26781899 0.03579
-0.40856999 0.302194 0.03579
-0.40356901 0.33656901 0.03579
-0.38316399 0.36583799 0.03579
-0.37590599 0.37094399 0.03579
-0.108164 0.22979 0.03579
-0.112094 0.23344401 0.03579
-0.073789001 0.21117 0.03579
-0.039414 0.20319501 0.03579
-0.0050390102 0.20023599 0.03579
0.029336 0.205111 0.03579
0.063711002 0.215177 0.03579
-0.14253899 0.284262 0.03579
-0.147239 0.302194 0.03579
-0.136134 0.26781899 0.03579
-0.15402 0.33656901 0.03579
-0.17124601 0.37094399 0.03579
-0.34878901 0.38242599 0.03579
-0.31441399 0.39014599 0.03579
-0.28003901 0.39290601 0.03579
-0.245664 0.392737 0.03579
-0.211289 0.389557 0.03579
-0.17691401 0.375788 0.03579
0.098085999 0.22426499 0.03579
0.132461 0.230382 0.03579
0.159151 0.23344401 0.03579
0.235586 0.231114 0.03579
0.221342 0.23344401 0.03579
0.269961 0.220562 0.03579
0.33871099 0.18212301 0.03579
0.313317 0.19906899 0.03579
0.30433601 0.203769 0.03579
0.16683599 0.23410399 0.03579
0.20121101 0.234992 0.03579
0.40746099 0.110152 0.03579
0.39245799 0.130319 0.03579
0.37308601 0.15249901 0.03579
0.36033601 0.164694 0.03579
-0.245664 -0.385306 0.0161747
-0.245664 -0.35093099 0.0265068
-0.211289 -0.31655601 0.0169078
-0.14253899 -0.385306 0.0116354
-0.17691401 -0.28218099 0.030056201
-0.34878901 -0.14468101 0.033199102
0.47621101 -0.110306 0.0084126601
-0.417539 0.23344401 0.023021
-0.14253899 0.302194 0.0096161999
-0.14253899 0.33656901 0.010532
-0.14253899 0.37094399 0.0056549301
-0.211289 -0.377929 0.070165001
-0.212602 -0.35093099 0.070165001
-0.211289 -0.34920201 0.070165001
-0.28003901 -0.202961 0.070165001
-0.30964899 -0.179056 0.070165001
-0.245664 -0.220558 0.070165001
-0.262629 -0.213431 0.070165001
-0.211289 -0.233283 0.070165001
-0.17691401 -0.38750601 0.070165001
-0.197595 -0.385306 0.070165001
-0.151254 -0.385306 0.070165001
-0.14253899 -0.384229 0.070165001
-0.179214 -0.31655601 0.070165001
-0.108164 -0.379953 0.070165001
-0.073789001 -0.38064399 0.070165001
-0.039414 -0.381129 0.070165001
-0.0050390102 -0.37505299 0.070165001
0.029336 -0.36912599 0.070165001
0.063711002 -0.367109 0.070165001
-0.17691401 -0.31389099 0.070165001
-0.166379 -0.28218099 0.070165001
-0.17691401 -0.25317299 0.070165001
-0.182689 -0.247806 0.070165001
-0.34878901 -0.13681 0.070165001
-0.36655799 -0.110306 0.070165001
-0.38316399 -0.077812903 0.070165001
-0.38388199 -0.075930998 0.070165001
-0.39562401 -0.041556001 0.070165001
-0.31441399 -0.174613 0.070165001
-0.34266499 -0.14468101 0.070165001
-0.40075999 -0.00718102 0.070165001
-0.39735401 0.027194001 0.070165001
-0.38978401 0.061569002 0.070165001
-0.394135 0.095944002 0.070165001
0.098085999 -0.36590499 0.070165001
0.132461 -0.366779 0.070165001
0.16683599 -0.374726 0.070165001
0.20121101 -0.38474399 0.070165001
0.235586 -0.388823 0.070165001
0.20376401 -0.385306 0.070165001
0.269961 -0.387817 0.070165001
0.30433601 -0.38620299 0.070165001
0.32011101 -0.385306 0.070165001
0.33871099 -0.38339201 0.070165001
0.37308601 -0.37635699 0.070165001
0.40746099 -0.364483 0.070165001
0.441098 -0.35093099 0.070165001
0.441836 -0.35062101 0.070165001
0.47621101 -0.33194301 0.070165001
0.49892601 -0.31655601 0.070165001
0.51058602 -0.30646601 0.070165001
0.53168702 -0.28218099 0.070165001
0.54496098 -0.258077 0.070165001
0.54839098 -0.247806 0.070165001
0.55443501 -0.213431 0.070165001
0.54708499 -0.179056 0.070165001
0.47621101 -0.124574 0.070165001
0.47078401 -0.110306 0.070165001
0.46561101 -0.075930998 0.070165001
0.46201399 -0.041556001 0.070165001
0.51058602 -0.14789 0.070165001
0.50178999 -0.14468101 0.070165001
0.54496098 -0.175163 0.070165001
0.45554301 -0.00718102 0.070165001
0.44538799 0.027194001 0.070165001
0.441836 0.037749901 0.070165001
0.43201801 0.061569002 0.070165001
0.41274601 0.095944002 0.070165001
-0.417539 0.13160001 0.070165001
-0.43020299 0.164694 0.070165001
-0.41673899 0.130319 0.070165001
-0.43058899 0.19906899 0.070165001
-0.42171201 0.23344401 0.070165001
-0.417539 0.24820299 0.070165001
-0.41433501 0.26781899 0.070165001
-0.414141 0.302194 0.070165001
-0.409105 0.33656901 0.070165001
-0.38316399 0.368292 0.070165001
-0.37892699 0.37094399 0.070165001
-0.108164 0.21745799 0.070165001
-0.121875 0.23344401 0.070165001
-0.073789001 0.200589 0.070165001
-0.039414 0.194813 0.070165001
-0.064256698 0.19906899 0.070165001
-0.0050390102 0.19230001 0.070165001
0.029336 0.198606 0.070165001
0.030889999 0.19906899 0.070165001
0.063711002 0.209674 0.070165001
-0.14253899 0.26856399 0.070165001
-0.15562899 0.302194 0.070165001
-0.142188 0.26781899 0.070165001
-0.164922 0.33656901 0.070165001
-0.17691401 0.36430401 0.070165001
-0.182817 0.37094399 0.070165001
-0.34878901 0.38310599 0.070165001
-0.31441399 0.39052999 0.070165001
-0.28003901 0.393518 0.070165001
-0.245664 0.393172 0.070165001
-0.211289 0.38683599 0.070165001
0.098085999 0.220378 0.070165001
0.132461 0.22733299 0.070165001
0.16683599 0.230919 0.070165001
0.20121101 0.231554 0.070165001
0.235586 0.227492 0.070165001
0.269961 0.216437 0.070165001
0.33871099 0.17833599 0.070165001
0.307033 0.19906899 0.070165001
0.30433601 0.200413 0.070165001
0.40746099 0.104938 0.070165001
0.38889799 0.130319 0.070165001
0.37308601 0.14861301 0.070165001
0.35612899 0.164694 0.070165001
-0.211289 -0.385306 0.0475857
-0.31441399 -0.179056 0.0512769
0.20121101 -0.385306 0.066932
0.269961 -0.385306 0.040945001
0.30433601 -0.385306 0.0398903
0.33871099 -0.385306 0.054198001
0.441836 -0.35093099 0.0688347
0.47621101 -0.110306 0.042581402
0.51058602 -0.14468101 0.062877998
-0.039414 0.19906899 0.056504901
-0.0050390102 0.19906899 0.043925598
0.029336 0.19906899 0.068434998
-0.17691401 0.37094399 0.047198799
0.16683599 0.23344401 0.047657698
0.20121101 0.23344401 0.0562342
0.318827 -0.38495499 0.050999802
-0.211289 -0.38047001 0.10454
-0.221304 -0.35093099 0.10454
-0.211289 -0.334701 0.10454
-0.28003901 -0.188172 0.10454
-0.29353499 -0.179056 0.10454
-0.211289 -0.21996801 0.10454
-0.231471 -0.213431 0.10454
-0.245664 -0.208024 0.10454
-0.17691401 -0.38791499 0.10454
-0.199297 -0.385306 0.10454
-0.14253899 -0.38674599 0.10454
-0.115111 -0.385306 0.10454
-0.192109 -0.31655601 0.10454
-0.108164 -0.38497001 0.10454
-0.073789001 -0.38423601 0.10454
-0.039414 -0.38087499 0.10454
-0.0050390102 -0.373335 0.10454
0.029336 -0.36842999 0.10454
0.063711002 -0.36693001 0.10454
-0.17691401 -0.29894 0.10454
-0.170628 -0.28218099 0.10454
-0.175208 -0.247806 0.10454
-0.17691401 -0.244884 0.10454
-0.34878901 -0.121096 0.10454
-0.35548601 -0.110306 0.10454
-0.373795 -0.075930998 0.10454
-0.38316399 -0.046534602 0.10454
-0.38424799 -0.041556001 0.10454
-0.31441399 -0.161103 0.10454
-0.33016899 -0.14468101 0.10454
-0.38803399 -0.00718102 0.10454
-0.38456199 0.027194001 0.10454
-0.38316399 0.03393 0.10454
-0.377799 0.061569002 0.10454
-0.38316399 0.094444796 0.10454
-0.38399699 0.095944002 0.10454
0.098085999 -0.36602101 0.10454
0.132461 -0.36536801 0.10454
0.16683599 -0.36779901 0.10454
0.20121101 -0.376414 0.10454
0.269961 -0.388091 0.10454
0.23636 -0.385306 0.10454
0.30063599 -0.385306 0.10454
0.235586 -0.38516799 0.10454
0.30433601 -0.384655 0.10454
0.33871099 -0.375029 0.10454
0.37308601 -0.36137 0.10454
0.40352201 -0.35093099 0.10454
0.40746099 -0.349722 0.10454
0.441836 -0.33562601 0.10454
0.47419801 -0.31655601 0.10454
0.47621101 -0.31516901 0.10454
0.51022297 -0.28218099 0.10454
0.51058602 -0.28170201 0.10454
0.529311 -0.247806 0.10454
0.53427202 -0.213431 0.10454
0.51426703 -0.179056 0.10454
0.47621101 -0.158507 0.10454
0.46504101 -0.14468101 0.10454
0.457389 -0.110306 0.10454
0.455679 -0.075930998 0.10454
0.45222101 -0.041556001 0.10454
0.51058602 -0.176915 0.10454
0.44592699 -0.00718102 0.10454
0.441836 0.0095652901 0.10454
0.4364 0.027194001 0.10454
0.40746099 0.089524202 0.10454
0.40384999 0.095944002 0.10454
0.42146501 0.061569002 0.10454
-0.417539 0.14061099 0.10454
-0.426148 0.164694 0.10454
-0.41075599 0.130319 0.10454
-0.42737901 0.19906899 0.10454
-0.418951 0.23344401 0.10454
-0.417539 0.238004 0.10454
-0.41154599 0.26781899 0.10454
-0.41051999 0.302194 0.10454
-0.40243599 0.33656901 0.10454
-0.38316399 0.36035401 0.10454
-0.36680999 0.37094399 0.10454
-0.108164 0.19366699 0.10454
-0.11417 0.19906899 0.10454
-0.073789001 0.1815 0.10454
-0.136429 0.23344401 0.10454
-0.039414 0.177222 0.10454
-0.0050390102 0.176338 0.10454
0.029336 0.185618 0.10454
0.063711002 0.198837 0.10454
-0.14253899 0.245868 0.10454
-0.153807 0.26781899 0.10454
-0.16718 0.302194 0.10454
-0.174008 0.33656901 0.10454
-0.17691401 0.348028 0.10454
-0.192433 0.37094399 0.10454
-0.34878901 0.377684 0.10454
-0.31441399 0.386217 0.10454
-0.28003901 0.38997799 0.10454
-0.245664 0.38978499 0.10454
-0.211289 0.38179499 0.10454
0.0643811 0.19906899 0.10454
0.098085999 0.209916 0.10454
0.132461 0.217942 0.10454
0.16683599 0.221627 0.10454
0.20121101 0.221874 0.10454
0.235586 0.217191 0.10454
0.269961 0.20605101 0.10454
0.30433601 0.190806 0.10454
0.28726399 0.19906899 0.10454
0.33871099 0.16793001 0.10454
0.37839201 0.130319 0.10454
0.37308601 0.136519 0.10454
0.343041 0.164694 0.10454
-0.245664 -0.213431 0.091364004
-0.14253899 -0.385306 0.084644698
-0.17691401 -0.247806 0.0967087
-0.38316399 -0.075930998 0.0737122
-0.38316399 0.061569002 0.092013203
0.235586 -0.385306 0.103747
0.30433601 -0.385306 0.097363703
0.40746099 -0.35093099 0.10251
0.47621101 -0.31655601 0.102512
0.51058602 -0.28218099 0.104123
0.54496098 -0.247806 0.0798181
0.54496098 -0.213431 0.090811104
0.54496098 -0.179056 0.074521199
0.47621101 -0.14468101 0.093473896
0.441836 0.027194001 0.087007701
0.40746099 0.095944002 0.094173297
-0.108164 0.19906899 0.098469801
-0.073789001 0.19906899 0.073920898
0.063711002 0.19906899 0.103936
-0.14253899 0.26781899 0.071634002
0.30433601 0.19906899 0.0776852
-0.211289 -0.38788101 0.138915
-0.22146501 -0.385306 0.138915
-0.239467 -0.35093099 0.138915
-0.212382 -0.31655601 0.138915
-0.211289 -0.31586999 0.138915
-0.245664 -0.188587 0.138915
-0.26547399 -0.179056 0.138915
-0.211289 -0.20249701 0.138915
-0.17691401 -0.38972801 0.138915
-0.14253899 -0.38820699 0.138915
-0.108164 -0.38747999 0.138915
-0.073789001 -0.38600999 0.138915
-0.065775603 -0.385306 0.138915
-0.039414 -0.38052201 0.138915
-0.0050390102 -0.37225899 0.138915
0.029336 -0.36812499 0.138915
0.063711002 -0.367075 0.138915
-0.17691401 -0.28985199 0.138915
-0.17093401 -0.28218099 0.138915
-0.16241901 -0.247806 0.138915
-0.17691401 -0.219375 0.138915
-0.185274 -0.213431 0.138915
-0.34878901 -0.093347304 0.138915
-0.35568401 -0.075930998 0.138915
-0.36411199 -0.041556001 0.138915
-0.28003901 -0.170138 0.138915
-0.31039101 -0.14468101 0.138915
-0.31441399 -0.14045499 0.138915
-0.33882001 -0.110306 0.138915
-0.365933 -0.00718102 0.138915
-0.36070201 0.027194001 0.138915
-0.35660499 0.061569002 0.138915
-0.37398401 0.095944002 0.138915
0.098085999 -0.36655599 0.138915
0.132461 -0.36601901 0.138915
0.16683599 -0.36579001 0.138915
0.20121101 -0.37056899 0.138915
0.269961 -0.38671601 0.138915
0.25200701 -0.385306 0.138915
0.287698 -0.385306 0.138915
0.235586 -0.381403 0.138915
0.30433601 -0.380703 0.138915
0.33871099 -0.36050099 0.138915
0.351587 -0.35093099 0.138915
0.37308601 -0.335228 0.138915
0.403909 -0.31655601 0.138915
0.40746099 -0.315355 0.138915
0.441836 -0.30057001 0.138915
0.46498701 -0.28218099 0.138915
0.47621101 -0.265838 0.138915
0.47621101 -0.228964 0.138915
0.45779699 -0.213431 0.138915
0.44224399 -0.179056 0.138915
0.481693 -0.247806 0.138915
0.441836 -0.176568 0.138915
0.439634 -0.14468101 0.138915
0.44009501 -0.110306 0.138915
0.439973 -0.075930998 0.138915
0.43728599 -0.041556001 0.138915
0.43054801 -0.00718102 0.138915
0.418365 0.027194001 0.138915
0.40746099 0.052917998 0.138915
0.403449 0.061569002 0.138915
0.38277599 0.095944002 0.138915
-0.417539 0.14540701 0.138915
-0.42274699 0.164694 0.138915
-0.38316399 0.104724 0.138915
-0.40847701 0.130319 0.138915
-0.42265299 0.19906899 0.138915
-0.417539 0.22441 0.138915
-0.415214 0.23344401 0.138915
-0.40791199 0.26781899 0.138915
-0.40254 0.302194 0.138915
-0.387566 0.33656901 0.138915
-0.38316399 0.342069 0.138915
-0.34878901 0.36690599 0.138915
-0.337488 0.37094399 0.138915
-0.211289 0.36858001 0.138915
-0.215141 0.37094399 0.138915
-0.108164 0.155927 0.138915
-0.12521701 0.164694 0.138915
-0.073789001 0.15232 0.138915
-0.14253899 0.200332 0.138915
-0.155687 0.23344401 0.138915
-0.14219999 0.19906899 0.138915
-0.039414 0.15136699 0.138915
-0.0050390102 0.154816 0.138915
0.0265055 0.164694 0.138915
0.029336 0.165766 0.138915
0.063711002 0.179965 0.138915
-0.174713 0.26781899 0.138915
-0.17691401 0.272706 0.138915
-0.184395 0.302194 0.138915
-0.18999 0.33656901 0.138915
-0.31441399 0.376463 0.138915
-0.28003901 0.380445 0.138915
-0.245664 0.37968701 0.138915
0.098085999 0.19279 0.138915
0.126316 0.19906899 0.138915
0.132461 0.199977 0.138915
0.16683599 0.20273 0.138915
0.20121101 0.202332 0.138915
0.33871099 0.14542601 0.138915
0.312388 0.164694 0.138915
0.235586 0.197965 0.138915
0.229972 0.19906899 0.138915
0.269961 0.18672299 0.138915
0.30433601 0.169109 0.138915
0.37308601 0.110219 0.138915
0.355344 0.130319 0.138915
-0.211289 -0.385306 0.123818
-0.211289 -0.31655601 0.13665099
-0.28003901 -0.179056 0.123704
-0.211289 -0.213431 0.119421
-0.108164 -0.385306 0.10729
-0.073789001 -0.385306 0.120074
-0.34878901 -0.110306 0.121519
-0.38316399 -0.041556001 0.106991
-0.31441399 -0.14468101 0.13320699
-0.38316399 -0.00718102 0.114043
-0.38316399 0.027194001 0.107306
-0.38316399 0.095944002 0.107035
0.37308601 -0.35093099 0.121246
0.40746099 -0.31655601 0.13815901
0.441836 -0.31655601 0.12774099
0.47621101 -0.28218099 0.133408
0.47621101 -0.213431 0.134995
0.47621101 -0.179056 0.118358
0.51058602 -0.247806 0.122628
0.51058602 -0.213431 0.122488
0.51058602 -0.179056 0.106174
0.441836 -0.14468101 0.135497
0.441836 -0.110306 0.13571499
0.441836 -0.075930998 0.135343
0.441836 -0.041556001 0.12978099
0.441836 -0.00718102 0.115688
0.40746099 0.061569002 0.132752
-0.417539 0.23344401 0.115783
-0.34878901 0.37094399 0.128188
-0.211289 0.37094399 0.13477799
-0.108164 0.164694 0.131962
-0.073789001 0.164694 0.126334
-0.14253899 0.23344401 0.117927
-0.039414 0.164694 0.123686
-0.0050390102 0.164694 0.125496
-0.17691401 0.302194 0.127076
-0.17691401 0.33656901 0.113605
0.098085999 0.19906899 0.128456
0.33871099 0.164694 0.111845
0.235586 0.19906899 0.137398
0.269961 0.19906899 0.120535
0.37308601 0.130319 0.115617
-0.211289 -0.39121199 0.17329
-0.229081 -0.385306 0.17329
-0.24263699 -0.35093099 0.17329
-0.21838801 -0.31655601 0.17329
-0.211289 -0.31230599 0.17329
-0.17691401 -0.39274901 0.17329
-0.14253899 -0.39004999 0.17329
-0.108164 -0.388174 0.17329
-0.073789001 -0.38647601 0.17329
-0.0590607 -0.385306 0.17329
-0.039414 -0.38241699 0.17329
-0.0050390102 -0.37522101 0.17329
0.029336 -0.37047499 0.17329
0.063711002 -0.36925799 0.17329
-0.17691401 -0.296554 0.17329
-0.15190101 -0.28218099 0.17329
-0.14253899 -0.26995701 0.17329
-0.137632 -0.247806 0.17329
-0.14253899 -0.21876401 0.17329
-0.144866 -0.213431 0.17329
-0.17691401 -0.186083 0.17329
-0.200415 -0.179056 0.17329
-0.28003901 -0.13968199 0.17329
-0.30813 -0.110306 0.17329
-0.245664 -0.162002 0.17329
-0.27352899 -0.14468101 0.17329
-0.211289 -0.176063 0.17329
-0.31441399 -0.101345 0.17329
-0.32809299 -0.075930998 0.17329
-0.33645701 -0.041556001 0.17329
-0.34878901 0.085653096 0.17329
-0.36715299 0.095944002 0.17329
-0.3351 -0.00718102 0.17329
-0.326437 0.027194001 0.17329
-0.32698801 0.061569002 0.17329
0.098085999 -0.36974001 0.17329
0.132461 -0.37145901 0.17329
0.16683599 -0.37385899 0.17329
0.20121101 -0.37821701 0.17329
0.269961 -0.385317 0.17329
0.24311601 -0.385306 0.17329
0.27007201 -0.385306 0.17329
0.235586 -0.38426101 0.17329
0.30433601 -0.37274101 0.17329
0.32774499 -0.35093099 0.17329
0.33871099 -0.33587101 0.17329
0.349969 -0.31655601 0.17329
0.37308601 -0.28246501 0.17329
0.37327099 -0.28218099 0.17329
0.39516801 -0.247806 0.17329
0.4068 -0.213431 0.17329
0.40746099 -0.20983 0.17329
0.41109401 -0.179056 0.17329
0.41360599 -0.14468101 0.17329
0.41585699 -0.110306 0.17329
0.416484 -0.075930998 0.17329
0.41444501 -0.041556001 0.17329
0.40746099 -0.0059644901 0.17329
0.39343199 0.027194001 0.17329
0.40781501 -0.00718102 0.17329
0.37308601 0.061059099 0.17329
0.37277699 0.061569002 0.17329
0.34595901 0.095944002 0.17329
-0.417539 0.14109799 0.17329
-0.42304799 0.164694 0.17329
-0.38316399 0.10493 0.17329
-0.411309 0.130319 0.17329
-0.42051601 0.19906899 0.17329
-0.417539 0.21247201 0.17329
-0.41242701 0.23344401 0.17329
-0.403606 0.26781899 0.17329
-0.391473 0.302194 0.17329
-0.38316399 0.317761 0.17329
-0.36591899 0.33656901 0.17329
-0.34878901 0.34743199 0.17329
-0.211289 0.277551 0.17329
-0.21397801 0.302194 0.17329
-0.31441399 0.36084101 0.17329
-0.28003901 0.364241 0.17329
-0.221002 0.33656901 0.17329
-0.245664 0.358289 0.17329
-0.14253899 0.117032 0.17329
-0.16412599 0.130319 0.17329
-0.17007101 0.164694 0.17329
-0.108164 0.111676 0.17329
-0.073789001 0.108874 0.17329
-0.17323799 0.19906899 0.17329
-0.17691401 0.21145301 0.17329
-0.18829 0.23344401 0.17329
-0.039414 0.110466 0.17329
-0.0050390102 0.11947 0.17329
0.0222896 0.130319 0.17329
0.029336 0.133518 0.17329
0.063711002 0.15014499 0.17329
-0.208206 0.26781899 0.17329
0.098085999 0.163277 0.17329
0.103136 0.164694 0.17329
0.132461 0.170662 0.17329
0.16683599 0.172757 0.17329
0.20121101 0.17001501 0.17329
0.235586 0.162138 0.17329
0.227029 0.164694 0.17329
0.269961 0.148008 0.17329
0.30433601 0.12906 0.17329
0.30224699 0.130319 0.17329
0.33871099 0.103036 0.17329
