# .PCD v0.7 - Point Cloud Data file format
VERSION 0.7
FIELDS x y z
SIZE 4 4 4
TYPE F F F
COUNT 1 1 1
WIDTH 1421
HEIGHT 1
VIEWPOINT 0 0 0 1 0 0 0
POINTS 1421
DATA ascii
0.0465235 0.433415 -0.10171
-0.0050390102 0.44803199 -0.10171
-0.0174975 0.456882 -0.10171
-0.022226499 0.46332201 -0.10171
-0.0244675 0.474069 -0.10171
-0.022226499 0.48798099 -0.10171
-0.021130901 0.491256 -0.10171
-0.0136579 0.50844401 -0.10171
0.0121485 0.44102699 -0.10171
-0.073789001 0.51213199 -0.10171
-0.056601498 0.52308398 -0.10171
-0.051875301 0.52563101 -0.10171
-0.039414 0.53211802 -0.10171
-0.0070005399 0.52563101 -0.10171
-0.022226499 0.54046899 -0.10171
0.079679102 0.181881 -0.10171
0.080898501 0.182363 -0.10171
0.098085999 0.190769 -0.10171
0.115273 0.197548 -0.10171
0.121542 0.19906899 -0.10171
0.132461 0.200606 -0.10171
0.16683599 0.197908 -0.10171
0.157607 0.19906899 -0.10171
0.18402299 0.198116 -0.10171
0.193092 0.19906899 -0.10171
0.149648 0.200159 -0.10171
0.20121101 0.199534 -0.10171
0.33871099 0.139681 -0.10171
0.33036101 0.147506 -0.10171
0.32152301 0.154458 -0.10171
0.304977 0.164694 -0.10171
0.218399 0.19857401 -0.10171
0.21454 0.19906899 -0.10171
0.235586 0.19435801 -0.10171
0.25277299 0.18831199 -0.10171
0.269961 0.18253 -0.10171
0.287148 0.174651 -0.10171
0.27173299 0.181881 -0.10171
0.30433601 0.165034 -0.10171
0.37308601 0.111833 -0.10171
0.37174299 0.113131 -0.10171
0.35589799 0.125971 -0.10171
0.349628 0.130319 -0.10171
-0.245664 -0.385306 -0.106976
-0.228477 -0.385306 -0.113537
-0.245664 -0.368119 -0.104392
-0.228477 -0.368119 -0.110405
-0.211289 -0.368119 -0.117068
-0.228477 -0.35093099 -0.103747
-0.211289 -0.35093099 -0.109808
-0.245664 -0.179056 -0.109647
-0.211289 -0.196244 -0.105311
-0.194102 -0.35093099 -0.11599
-0.194102 -0.33374399 -0.105336
-0.17691401 -0.33374399 -0.112605
-0.17691401 -0.31655601 -0.101943
-0.15972701 -0.31655601 -0.111195
-0.15972701 -0.29936901 -0.106322
-0.14253899 -0.29936901 -0.115235
-0.15972701 -0.28218099 -0.104833
-0.14253899 -0.28218099 -0.114496
-0.15972701 -0.264994 -0.107306
-0.14253899 -0.264994 -0.117918
-0.15972701 -0.247806 -0.112928
-0.17691401 -0.230619 -0.102353
-0.17691401 -0.213431 -0.109175
-0.15972701 -0.230619 -0.118625
-0.194102 -0.196244 -0.109578
-0.17691401 -0.196244 -0.118534
-0.34878901 -0.058743499 -0.104561
-0.34878901 -0.041556001 -0.107292
-0.28003901 -0.161869 -0.10203
-0.297227 -0.14468101 -0.111468
-0.31441399 -0.12749401 -0.111667
-0.33160201 -0.110306 -0.103564
-0.26285201 -0.161869 -0.118549
-0.33160201 -0.093118504 -0.113481
-0.34878901 -0.0243685 -0.110883
-0.34878901 -0.00718102 -0.111357
-0.34878901 0.0100065 -0.105657
-0.33160201 0.027194001 -0.118374
-0.33160201 0.044381499 -0.11348
-0.33160201 0.061569002 -0.105858
-0.31441399 0.078756496 -0.112701
-0.31441399 0.095944002 -0.103195
-0.297227 0.095944002 -0.116576
0.235586 -0.385306 -0.115999
0.287148 -0.385306 -0.114859
0.30433601 -0.368119 -0.108655
0.33871099 -0.33374399 -0.101716
0.35589799 -0.31655601 -0.104622
0.37308601 -0.29936901 -0.104321
0.39027399 -0.28218099 -0.10305
0.39027399 -0.264994 -0.115247
0.40746099 -0.247806 -0.108148
0.424649 -0.213431 -0.103017
0.424649 -0.196244 -0.115566
0.441836 -0.075930998 -0.105226
0.441836 -0.058743499 -0.1098
0.441836 -0.041556001 -0.110157
0.424649 -0.00718102 -0.115285
0.424649 0.0100065 -0.104938
0.40746099 0.044381499 -0.117436
0.37308601 0.095944002 -0.116654
0.39027399 0.078756496 -0.111828
-0.297227 0.113131 -0.107689
-0.28003901 0.113131 -0.117814
-0.297227 0.130319 -0.104457
-0.28003901 0.130319 -0.111098
-0.31441399 0.147506 -0.102633
-0.31441399 0.164694 -0.105258
-0.297227 0.147506 -0.107749
-0.28003901 0.147506 -0.111142
-0.297227 0.164694 -0.110068
-0.28003901 0.164694 -0.113277
-0.26285201 0.130319 -0.118017
-0.26285201 0.147506 -0.113924
-0.245664 0.147506 -0.116954
-0.26285201 0.164694 -0.114553
-0.245664 0.164694 -0.114311
-0.228477 0.164694 -0.115184
-0.211289 0.164694 -0.117397
-0.31441399 0.181881 -0.106332
-0.31441399 0.19906899 -0.108128
-0.297227 0.181881 -0.11076
-0.28003901 0.181881 -0.113639
-0.297227 0.19906899 -0.112449
-0.28003901 0.19906899 -0.114592
-0.31441399 0.21625599 -0.107229
-0.31441399 0.23344401 -0.104136
-0.297227 0.21625599 -0.112259
-0.28003901 0.21625599 -0.114842
-0.297227 0.23344401 -0.109413
-0.28003901 0.23344401 -0.112382
-0.26285201 0.181881 -0.114871
-0.245664 0.181881 -0.114566
-0.26285201 0.19906899 -0.114909
-0.245664 0.19906899 -0.11409
-0.228477 0.181881 -0.113445
-0.211289 0.181881 -0.110845
-0.228477 0.19906899 -0.111848
-0.211289 0.19906899 -0.107242
-0.26285201 0.21625599 -0.115159
-0.245664 0.21625599 -0.113526
-0.26285201 0.23344401 -0.113429
-0.245664 0.23344401 -0.111845
-0.228477 0.21625599 -0.110033
-0.211289 0.21625599 -0.104758
-0.228477 0.23344401 -0.108249
-0.211289 0.23344401 -0.102831
-0.297227 0.25063199 -0.1065
-0.28003901 0.25063199 -0.110143
-0.297227 0.26781899 -0.103588
-0.28003901 0.26781899 -0.1079
-0.297227 0.28500599 -0.102853
-0.28003901 0.28500599 -0.107446
-0.297227 0.302194 -0.108235
-0.26285201 0.25063199 -0.111352
-0.245664 0.25063199 -0.109368
-0.26285201 0.26781899 -0.109516
-0.245664 0.26781899 -0.107649
-0.228477 0.25063199 -0.105518
-0.228477 0.26781899 -0.10335
-0.26285201 0.28500599 -0.109254
-0.245664 0.28500599 -0.106711
-0.245664 0.302194 -0.11449
-0.194102 0.181881 -0.10786
-0.17691401 0.181881 -0.109015
-0.15972701 0.181881 -0.115316
-0.073789001 0.181881 -0.114653
-0.039414 0.164694 -0.115275
-0.022226499 0.164694 -0.113129
-0.0050390102 0.164694 -0.114209
0.0121485 0.164694 -0.116379
-0.056601498 0.181881 -0.10308
-0.108164 0.37094399 -0.102513
-0.090976499 0.37094399 -0.105447
-0.073789001 0.37094399 -0.105557
-0.31441399 0.40531901 -0.113009
-0.28003901 0.42250699 -0.11696
-0.245664 0.38813099 -0.109254
-0.26285201 0.40531901 -0.104289
-0.125352 0.38813099 -0.105332
-0.108164 0.38813099 -0.112042
-0.125352 0.40531901 -0.109619
-0.108164 0.40531901 -0.118311
-0.090976499 0.38813099 -0.117231
-0.125352 0.42250699 -0.109656
-0.125352 0.43969399 -0.107079
-0.108164 0.456882 -0.117355
-0.108164 0.474069 -0.109254
-0.090976499 0.491256 -0.115001
-0.073789001 0.50844401 -0.115895
-0.022226499 0.38813099 -0.114963
-0.0050390102 0.38813099 -0.104837
0.029336 0.43969399 -0.105817
0.063711002 0.42250699 -0.112059
0.0465235 0.43969399 -0.1116
0.063711002 0.43969399 -0.117908
-0.0050390102 0.456882 -0.108501
-0.022226499 0.474069 -0.103701
-0.0050390102 0.474069 -0.116914
-0.0050390102 0.491256 -0.118659
-0.0050390102 0.50844401 -0.113936
0.0121485 0.456882 -0.11708
-0.0050390102 0.52563101 -0.104394
-0.022226499 0.54281902 -0.106138
-0.0050390102 0.54281902 -0.105289
0.080898501 0.181881 -0.102232
0.098085999 0.181881 -0.111893
0.132461 0.19906899 -0.104368
0.149648 0.19906899 -0.103275
0.20121101 0.19906899 -0.102372
0.33871099 0.130319 -0.111517
0.287148 0.164694 -0.114573
0.30433601 0.164694 -0.10219
0.32152301 0.147506 -0.110892
0.25277299 0.181881 -0.112766
0.269961 0.181881 -0.102774
0.35589799 0.113131 -0.115652
-0.26285201 -0.39534599 -0.084522396
-0.27427 -0.385306 -0.084522396
-0.245664 -0.397228 -0.084522396
-0.228477 -0.39763299 -0.084522396
-0.211289 -0.39776701 -0.084522396
-0.269952 -0.368119 -0.084522396
-0.26285201 -0.357061 -0.084522396
-0.25850701 -0.35093099 -0.084522396
-0.245664 -0.33931199 -0.084522396
-0.23556501 -0.33374399 -0.084522396
-0.228477 -0.330708 -0.084522396
-0.211289 -0.32239801 -0.084522396
-0.245664 -0.202452 -0.084522396
-0.255018 -0.196244 -0.084522396
-0.26285201 -0.18931399 -0.084522396
-0.274519 -0.179056 -0.084522396
-0.228477 -0.20902599 -0.084522396
-0.211289 -0.21276399 -0.084522396
-0.194102 -0.39757901 -0.084522396
-0.17691401 -0.39737099 -0.084522396
-0.15972701 -0.39687401 -0.084522396
-0.14253899 -0.396505 -0.084522396
-0.125352 -0.39607599 -0.084522396
-0.108164 -0.39500201 -0.084522396
-0.090976499 -0.39106601 -0.084522396
-0.080548599 -0.385306 -0.084522396
-0.201445 -0.31655601 -0.084522396
-0.073789001 -0.37966499 -0.084522396
-0.0576116 -0.368119 -0.084522396
-0.056601498 -0.36770901 -0.084522396
-0.039414 -0.36495501 -0.084522396
-0.022226499 -0.365338 -0.084522396
-0.0050390102 -0.36557001 -0.084522396
0.0121485 -0.36546299 -0.084522396
0.029336 -0.36500499 -0.084522396
0.0465235 -0.364517 -0.084522396
0.063711002 -0.36396801 -0.084522396
-0.194102 -0.31062299 -0.084522396
-0.186166 -0.29936901 -0.084522396
-0.18134201 -0.28218099 -0.084522396
-0.180594 -0.264994 -0.084522396
-0.18277299 -0.247806 -0.084522396
-0.187232 -0.230619 -0.084522396
-0.194102 -0.219887 -0.084522396
-0.208221 -0.213431 -0.084522396
-0.34878901 -0.100063 -0.084522396
-0.35197201 -0.093118504 -0.084522396
-0.360989 -0.075930998 -0.084522396
-0.36577499 -0.058743499 -0.084522396
-0.36597699 -0.056948598 -0.084522396
-0.36889899 -0.041556001 -0.084522396
-0.31441399 -0.15173399 -0.084522396
-0.32413599 -0.14468101 -0.084522396
-0.297227 -0.16188601 -0.084522396
-0.29725999 -0.161869 -0.084522396
-0.28003901 -0.17407601 -0.084522396
-0.33160201 -0.13738 -0.084522396
-0.33818501 -0.12749401 -0.084522396
-0.34542 -0.110306 -0.084522396
-0.37114599 -0.0243685 -0.084522396
-0.36911601 -0.00718102 -0.084522396
-0.36598101 0.0100065 -0.084522396
-0.36597699 0.0100416 -0.084522396
-0.363796 0.027194001 -0.084522396
-0.35913101 0.044381499 -0.084522396
-0.35185799 0.061569002 -0.084522396
-0.34878901 0.068865798 -0.084522396
-0.34371799 0.078756496 -0.084522396
-0.33182201 0.095944002 -0.084522396
0.080898501 -0.36330199 -0.084522396
0.098085999 -0.362822 -0.084522396
0.115273 -0.36245999 -0.084522396
0.132461 -0.361828 -0.084522396
0.149648 -0.36110401 -0.084522396
0.16683599 -0.360742 -0.084522396
0.20121101 -0.36896399 -0.084522396
0.20013 -0.368119 -0.084522396
0.18402299 -0.36158299 -0.084522396
0.235586 -0.39095601 -0.084522396
0.219539 -0.385306 -0.084522396
0.25277299 -0.391592 -0.084522396
0.269961 -0.39049801 -0.084522396
0.287148 -0.38822499 -0.084522396
0.295683 -0.385306 -0.084522396
0.218399 -0.38447499 -0.084522396
0.30433601 -0.377711 -0.084522396
0.31550401 -0.368119 -0.084522396
0.32152301 -0.36470801 -0.084522396
0.33871099 -0.35490301 -0.084522396
0.34794199 -0.35093099 -0.084522396
0.35589799 -0.34808001 -0.084522396
0.37308601 -0.342127 -0.084522396
0.39027399 -0.337302 -0.084522396
0.40399501 -0.33374399 -0.084522396
0.40746099 -0.33264899 -0.084522396
0.424649 -0.32392401 -0.084522396
0.437365 -0.31655601 -0.084522396
0.441836 -0.31475699 -0.084522396
0.459023 -0.30590001 -0.084522396
0.467628 -0.29936901 -0.084522396
0.47621101 -0.29063699 -0.084522396
0.441836 -0.228899 -0.084522396
0.43425 -0.213431 -0.084522396
0.459023 -0.226237 -0.084522396
0.47621101 -0.222048 -0.084522396
0.43754399 -0.196244 -0.084522396
0.44089699 -0.179056 -0.084522396
0.48246899 -0.28218099 -0.084522396
0.493247 -0.264994 -0.084522396
0.49339801 -0.26468799 -0.084522396
0.49917701 -0.247806 -0.084522396
0.49726501 -0.230619 -0.084522396
0.49339801 -0.225949 -0.084522396
0.441836 -0.17460901 -0.084522396
0.444538 -0.161869 -0.084522396
0.44724599 -0.14468101 -0.084522396
0.44855899 -0.12749401 -0.084522396
0.449193 -0.110306 -0.084522396
0.44910499 -0.093118504 -0.084522396
0.45032701 -0.075930998 -0.084522396
0.45203 -0.058743499 -0.084522396
0.45125401 -0.041556001 -0.084522396
0.44764701 -0.0243685 -0.084522396
0.44231901 -0.00718102 -0.084522396
0.441836 -0.0057483902 -0.084522396
0.43701199 0.0100065 -0.084522396
0.431788 0.027194001 -0.084522396
0.40746099 0.073039599 -0.084522396
0.40472499 0.078756496 -0.084522396
0.394954 0.095944002 -0.084522396
0.424649 0.043906402 -0.084522396
0.424366 0.044381499 -0.084522396
0.41333899 0.061569002 -0.084522396
-0.34878901 0.15035699 -0.084522396
-0.355995 0.164694 -0.084522396
-0.36202201 0.181881 -0.084522396
-0.36427 0.19906899 -0.084522396
-0.360753 0.21625599 -0.084522396
-0.34945601 0.23344401 -0.084522396
-0.33160201 0.096249498 -0.084522396
-0.326574 0.113131 -0.084522396
-0.33160201 0.125521 -0.084522396
-0.33546701 0.130319 -0.084522396
-0.34727201 0.147506 -0.084522396
-0.34878901 0.23466 -0.084522396
-0.34246901 0.25063199 -0.084522396
-0.339571 0.26781899 -0.084522396
-0.33785099 0.28500599 -0.084522396
-0.332194 0.302194 -0.084522396
-0.211289 0.301725 -0.084522396
-0.21177401 0.302194 -0.084522396
-0.33160201 0.303599 -0.084522396
-0.326792 0.319381 -0.084522396
-0.326617 0.33656901 -0.084522396
-0.326895 0.35375601 -0.084522396
-0.32369399 0.37094399 -0.084522396
-0.220314 0.319381 -0.084522396
-0.22509401 0.33656901 -0.084522396
-0.228477 0.34605801 -0.084522396
-0.231564 0.35375601 -0.084522396
-0.241835 0.37094399 -0.084522396
-0.15972701 0.214232 -0.084522396
-0.16125301 0.21625599 -0.084522396
-0.14253899 0.207892 -0.084522396
-0.16836999 0.23344401 -0.084522396
-0.073789001 0.198906 -0.084522396
-0.074507803 0.19906899 -0.084522396
-0.125352 0.207032 -0.084522396
-0.108164 0.205323 -0.084522396
-0.090976499 0.202436 -0.084522396
-0.056601498 0.192642 -0.084522396
-0.039414 0.18401501 -0.084522396
-0.022226499 0.179665 -0.084522396
-0.033621501 0.181881 -0.084522396
-0.0050390102 0.178986 -0.084522396
0.0121485 0.18063299 -0.084522396
0.019166799 0.181881 -0.084522396
0.029336 0.18377 -0.084522396
0.0465235 0.18683501 -0.084522396
0.063711002 0.189568 -0.084522396
-0.17691401 0.24687999 -0.084522396
-0.18081599 0.25063199 -0.084522396
-0.189337 0.26781899 -0.084522396
-0.194102 0.283005 -0.084522396
-0.195318 0.28500599 -0.084522396
-0.14253899 0.35575199 -0.084522396
-0.15760399 0.37094399 -0.084522396
-0.125352 0.34864399 -0.084522396
-0.13861801 0.35375601 -0.084522396
-0.108164 0.34696701 -0.084522396
-0.090976499 0.350447 -0.084522396
-0.079970501 0.35375601 -0.084522396
-0.073789001 0.35596299 -0.084522396
-0.056601498 0.36313 -0.084522396
-0.039414 0.37042001 -0.084522396
-0.038150601 0.37094399 -0.084522396
-0.315842 0.38813099 -0.084522396
-0.31441399 0.39010701 -0.084522396
-0.297227 0.403557 -0.084522396
-0.28003901 0.40414801 -0.084522396
-0.245664 0.37592199 -0.084522396
-0.256594 0.38813099 -0.084522396
-0.26285201 0.39394799 -0.084522396
-0.15972701 0.37616801 -0.084522396
-0.161544 0.38813099 -0.084522396
-0.160329 0.40531901 -0.084522396
-0.15972701 0.408723 -0.084522396
-0.156358 0.42250699 -0.084522396
-0.149011 0.43969399 -0.084522396
-0.14253899 0.45104501 -0.084522396
-0.138625 0.456882 -0.084522396
-0.125352 0.473093 -0.084522396
-0.124388 0.474069 -0.084522396
-0.108164 0.48851001 -0.084522396
-0.104379 0.491256 -0.084522396
-0.090976499 0.499663 -0.084522396
-0.075599 0.50844401 -0.084522396
-0.022226499 0.377765 -0.084522396
-0.0050390102 0.38548401 -0.084522396
-0.022226499 0.437572 -0.084522396
-0.028459201 0.43969399 -0.084522396
-0.0050390102 0.43292299 -0.084522396
0.00054665998 0.38813099 -0.084522396
0.0121485 0.39405301 -0.084522396
0.029336 0.40527001 -0.084522396
0.029398199 0.40531901 -0.084522396
0.0121485 0.42930901 -0.084522396
0.029336 0.42394799 -0.084522396
0.031572498 0.42250699 -0.084522396
-0.039414 0.44795501 -0.084522396
-0.042671099 0.456882 -0.084522396
-0.039813899 0.474069 -0.084522396
-0.039414 0.475095 -0.084522396
-0.032953199 0.491256 -0.084522396
-0.025919 0.50844401 -0.084522396
-0.073789001 0.50931799 -0.084522396
-0.056601498 0.51693702 -0.084522396
-0.039414 0.52371901 -0.084522396
0.080898501 0.19475099 -0.084522396
0.0923035 0.19906899 -0.084522396
0.098085999 0.200891 -0.084522396
0.115273 0.205797 -0.084522396
0.132461 0.209162 -0.084522396
0.149648 0.21004 -0.084522396
0.16683599 0.208821 -0.084522396
0.18402299 0.208728 -0.084522396
0.20121101 0.21013901 -0.084522396
0.33871099 0.15321299 -0.084522396
0.322844 0.164694 -0.084522396
0.269961 0.192801 -0.084522396
0.25440001 0.19906899 -0.084522396
0.218399 0.20925801 -0.084522396
0.235586 0.205419 -0.084522396
0.25277299 0.199681 -0.084522396
0.30433601 0.175837 -0.084522396
0.293349 0.181881 -0.084522396
0.287148 0.184935 -0.084522396
0.32152301 0.165489 -0.084522396
0.37308601 0.124183 -0.084522396
0.36681899 0.130319 -0.084522396
0.39027399 0.103684 -0.084522396
0.38311401 0.113131 -0.084522396
0.35589799 0.13970099 -0.084522396
0.346095 0.147506 -0.084522396
-0.26285201 -0.385306 -0.097379103
-0.26285201 -0.368119 -0.094374403
-0.245664 -0.35093099 -0.096383698
-0.228477 -0.33374399 -0.088890597
-0.211289 -0.33374399 -0.098327599
-0.245664 -0.196244 -0.090804003
-0.26285201 -0.179056 -0.095308699
-0.228477 -0.196244 -0.099965803
-0.194102 -0.31655601 -0.0905504
-0.17691401 -0.29936901 -0.094340302
-0.17691401 -0.28218099 -0.090242699
-0.17691401 -0.264994 -0.090537898
-0.17691401 -0.247806 -0.096220098
-0.194102 -0.213431 -0.092279702
-0.34878901 -0.093118504 -0.089921497
-0.34878901 -0.075930998 -0.099768102
-0.36597699 -0.041556001 -0.088888302
-0.31441399 -0.14468101 -0.097372703
-0.297227 -0.161869 -0.084587298
-0.33160201 -0.12749401 -0.094110198
-0.36597699 -0.0243685 -0.092602298
-0.36597699 -0.00718102 -0.089040302
-0.36597699 0.0100065 -0.084528901
-0.34878901 0.027194001 -0.101363
-0.34878901 0.044381499 -0.0961596
-0.34878901 0.061569002 -0.0881171
-0.33160201 0.078756496 -0.097110301
-0.33160201 0.095944002 -0.084775098
0.20121101 -0.368119 -0.085926898
0.32152301 -0.35093099 -0.100506
0.33871099 -0.35093099 -0.087710403
0.35589799 -0.33374399 -0.092887498
0.37308601 -0.33374399 -0.0896063
0.37308601 -0.31655601 -0.097366497
0.39027399 -0.33374399 -0.086861998
0.39027399 -0.31655601 -0.095200904
0.40746099 -0.31655601 -0.093179502
0.424649 -0.31655601 -0.088549897
0.39027399 -0.29936901 -0.098979801
0.40746099 -0.29936901 -0.098297797
0.40746099 -0.28218099 -0.099816598
0.40746099 -0.264994 -0.100774
0.424649 -0.29936901 -0.096724503
0.441836 -0.29936901 -0.094187699
0.424649 -0.28218099 -0.100496
0.441836 -0.28218099 -0.100103
0.459023 -0.29936901 -0.088652797
0.459023 -0.28218099 -0.095804997
0.47621101 -0.28218099 -0.0879253
0.424649 -0.264994 -0.098766901
0.441836 -0.264994 -0.099851497
0.424649 -0.247806 -0.093458198
0.441836 -0.247806 -0.093745798
0.459023 -0.264994 -0.097798601
0.47621101 -0.264994 -0.0925835
0.459023 -0.247806 -0.094838098
0.47621101 -0.247806 -0.093139403
0.424649 -0.230619 -0.092374302
0.441836 -0.230619 -0.085361898
0.459023 -0.230619 -0.087023199
0.47621101 -0.230619 -0.088416703
0.49339801 -0.247806 -0.087463401
0.49339801 -0.230619 -0.0857343
0.441836 -0.161869 -0.0938209
0.441836 -0.14468101 -0.098547198
0.441836 -0.12749401 -0.097906098
0.441836 -0.110306 -0.097757198
0.441836 -0.093118504 -0.100166
0.441836 -0.0243685 -0.101343
0.441836 -0.00718102 -0.085797802
0.424649 0.027194001 -0.098783098
0.40746099 0.061569002 -0.101026
0.39027399 0.095944002 -0.094722703
-0.34878901 0.164694 -0.0879694
-0.34878901 0.181881 -0.090044998
-0.34878901 0.19906899 -0.091546103
-0.34878901 0.21625599 -0.089790098
-0.34878901 0.23344401 -0.084865302
-0.31441399 0.113131 -0.094626702
-0.33160201 0.130319 -0.086718202
-0.31441399 0.130319 -0.096237503
-0.33160201 0.147506 -0.094262697
-0.33160201 0.164694 -0.0979314
-0.33160201 0.181881 -0.099397898
-0.33160201 0.19906899 -0.100501
-0.33160201 0.21625599 -0.0987074
-0.33160201 0.23344401 -0.094914697
-0.33160201 0.25063199 -0.091297798
-0.31441399 0.25063199 -0.100776
-0.33160201 0.26781899 -0.0895463
-0.31441399 0.26781899 -0.097857401
-0.33160201 0.28500599 -0.088905603
-0.31441399 0.28500599 -0.097196497
-0.33160201 0.302194 -0.084963799
-0.31441399 0.302194 -0.096233897
-0.211289 0.25063199 -0.100319
-0.211289 0.26781899 -0.097872399
-0.228477 0.28500599 -0.100743
-0.211289 0.28500599 -0.093039997
-0.228477 0.302194 -0.098538503
-0.31441399 0.319381 -0.100559
-0.228477 0.319381 -0.099324197
-0.228477 0.33656901 -0.0968007
-0.194102 0.19906899 -0.101527
-0.17691401 0.19906899 -0.096919797
-0.15972701 0.19906899 -0.096208498
-0.14253899 0.19906899 -0.099033803
-0.194102 0.21625599 -0.098536998
-0.17691401 0.21625599 -0.091542304
-0.194102 0.23344401 -0.096235998
-0.17691401 0.23344401 -0.089023598
-0.125352 0.19906899 -0.101398
-0.108164 0.19906899 -0.100506
-0.090976499 0.19906899 -0.094411999
-0.039414 0.181881 -0.089103803
0.029336 0.181881 -0.089219697
0.0465235 0.181881 -0.095175602
0.063711002 0.181881 -0.097625598
-0.194102 0.25063199 -0.092038304
-0.194102 0.26781899 -0.088311903
-0.14253899 0.37094399 -0.090982601
-0.125352 0.35375601 -0.087586299
-0.108164 0.35375601 -0.090581499
-0.125352 0.37094399 -0.097589903
-0.090976499 0.35375601 -0.089298896
-0.056601498 0.37094399 -0.101632
-0.039414 0.37094399 -0.087393098
-0.297227 0.40531901 -0.088110298
-0.28003901 0.40531901 -0.086716197
-0.15972701 0.38813099 -0.085780598
-0.14253899 0.38813099 -0.097111501
-0.15972701 0.40531901 -0.085018001
-0.14253899 0.40531901 -0.098859303
-0.14253899 0.42250699 -0.097102098
-0.14253899 0.43969399 -0.091612801
-0.125352 0.456882 -0.101179
-0.022226499 0.43969399 -0.086581297
-0.0050390102 0.43969399 -0.093430303
0.0121485 0.43969399 -0.100175
0.0465235 0.42250699 -0.094099902
-0.039414 0.456882 -0.087247901
-0.039414 0.474069 -0.085094802
-0.022226499 0.456882 -0.099298298
-0.022226499 0.491256 -0.100196
-0.022226499 0.50844401 -0.089400098
-0.039414 0.52563101 -0.087120101
-0.022226499 0.52563101 -0.088664196
0.098085999 0.19906899 -0.088415198
0.115273 0.19906899 -0.099047497
0.16683599 0.19906899 -0.100192
0.18402299 0.19906899 -0.100293
0.33871099 0.147506 -0.092616104
0.32152301 0.164694 -0.085983403
0.218399 0.19906899 -0.101057
0.235586 0.19906899 -0.095303401
0.25277299 0.19906899 -0.085521802
0.287148 0.181881 -0.090497397
0.37308601 0.113131 -0.100068
0.35589799 0.130319 -0.0965809
-0.28003901 -0.39079601 -0.067334898
-0.28310701 -0.385306 -0.067334898
-0.26285201 -0.39670601 -0.067334898
-0.245664 -0.39749399 -0.067334898
-0.228477 -0.39757299 -0.067334898
-0.211289 -0.39737701 -0.067334898
-0.28003901 -0.36828199 -0.067334898
-0.279926 -0.368119 -0.067334898
-0.26811999 -0.35093099 -0.067334898
-0.26285201 -0.34376699 -0.067334898
-0.25143901 -0.33374399 -0.067334898
-0.245664 -0.329965 -0.067334898
-0.228477 -0.32138899 -0.067334898
-0.21785399 -0.31655601 -0.067334898
-0.211289 -0.313261 -0.067334898
-0.28003901 -0.18767001 -0.067334898
-0.288643 -0.179056 -0.067334898
-0.228477 -0.217786 -0.067334898
-0.242386 -0.213431 -0.067334898
-0.211289 -0.22124 -0.067334898
-0.26285201 -0.202144 -0.067334898
-0.27025801 -0.196244 -0.067334898
-0.245664 -0.21214201 -0.067334898
-0.194102 -0.397214 -0.067334898
-0.17691401 -0.396929 -0.067334898
-0.15972701 -0.39655399 -0.067334898
-0.14253899 -0.39618599 -0.067334898
-0.125352 -0.39583999 -0.067334898
-0.108164 -0.395302 -0.067334898
-0.090976499 -0.393457 -0.067334898
-0.073789001 -0.387317 -0.067334898
-0.070309997 -0.385306 -0.067334898
-0.056601498 -0.37369901 -0.067334898
-0.048679601 -0.368119 -0.067334898
-0.039414 -0.36596701 -0.067334898
-0.022226499 -0.36560199 -0.067334898
-0.0050390102 -0.365621 -0.067334898
0.0121485 -0.36569101 -0.067334898
0.029336 -0.36556 -0.067334898
0.0465235 -0.365049 -0.067334898
0.063711002 -0.36464301 -0.067334898
-0.19698399 -0.29936901 -0.067334898
-0.194102 -0.29306701 -0.067334898
-0.191249 -0.28218099 -0.067334898
-0.189134 -0.264994 -0.067334898
-0.18931399 -0.247806 -0.067334898
-0.194102 -0.232823 -0.067334898
-0.19557799 -0.230619 -0.067334898
-0.34878901 -0.120645 -0.067334898
-0.352514 -0.110306 -0.067334898
-0.35926101 -0.093118504 -0.067334898
-0.36597699 -0.081706598 -0.067334898
-0.36963201 -0.075930998 -0.067334898
-0.37577501 -0.058743499 -0.067334898
-0.37670001 -0.041556001 -0.067334898
-0.31441399 -0.15754899 -0.067334898
-0.33021101 -0.14468101 -0.067334898
-0.297227 -0.170941 -0.067334898
-0.308458 -0.161869 -0.067334898
-0.33160201 -0.143204 -0.067334898
-0.344605 -0.12749401 -0.067334898
-0.37721199 -0.0243685 -0.067334898
-0.37708199 -0.00718102 -0.067334898
-0.37515599 0.0100065 -0.067334898
-0.372684 0.027194001 -0.067334898
-0.36917001 0.044381499 -0.067334898
-0.36597699 0.055096801 -0.067334898
-0.36359799 0.061569002 -0.067334898
-0.35592401 0.078756496 -0.067334898
-0.34878901 0.094535403 -0.067334898
-0.348028 0.095944002 -0.067334898
0.080898501 -0.364232 -0.067334898
0.098085999 -0.363489 -0.067334898
0.115273 -0.362845 -0.067334898
0.132461 -0.36233801 -0.067334898
0.149648 -0.36179999 -0.067334898
0.16683599 -0.36163199 -0.067334898
0.20121101 -0.38128501 -0.067334898
0.186216 -0.368119 -0.067334898
0.18402299 -0.366777 -0.067334898
0.218399 -0.39060801 -0.067334898
0.20567 -0.385306 -0.067334898
0.235586 -0.39240101 -0.067334898
0.25277299 -0.39238501 -0.067334898
0.269961 -0.39187801 -0.067334898
0.287148 -0.390129 -0.067334898
0.30433601 -0.38540301 -0.067334898
0.304544 -0.385306 -0.067334898
0.32152301 -0.376582 -0.067334898
0.33871099 -0.371142 -0.067334898
0.351596 -0.368119 -0.067334898
0.35589799 -0.36709699 -0.067334898
0.37308601 -0.36243501 -0.067334898
0.39027399 -0.35754201 -0.067334898
0.40746099 -0.35203299 -0.067334898
0.410512 -0.35093099 -0.067334898
0.424649 -0.343555 -0.067334898
0.4393 -0.33374399 -0.067334898
0.441836 -0.33195901 -0.067334898
0.459023 -0.32124001 -0.067334898
0.46824801 -0.31655601 -0.067334898
0.47621101 -0.31083301 -0.067334898
0.459023 -0.199009 -0.067334898
0.45138901 -0.196244 -0.067334898
0.47621101 -0.197115 -0.067334898
0.44711 -0.179056 -0.067334898
0.48929101 -0.29936901 -0.067334898
0.49339801 -0.29514 -0.067334898
0.50390399 -0.28218099 -0.067334898
0.51058602 -0.27200401 -0.067334898
0.51375401 -0.264994 -0.067334898
0.52024001 -0.247806 -0.067334898
0.523619 -0.230619 -0.067334898
0.519216 -0.213431 -0.067334898
0.48070401 -0.196244 -0.067334898
0.51058602 -0.202585 -0.067334898
0.49986199 -0.196244 -0.067334898
0.49339801 -0.19536 -0.067334898
0.44955999 -0.161869 -0.067334898
0.452714 -0.14468101 -0.067334898
0.45589 -0.12749401 -0.067334898
0.45770499 -0.110306 -0.067334898
0.45642099 -0.093118504 -0.067334898
0.45541 -0.075930998 -0.067334898
0.45741999 -0.058743499 -0.067334898
0.45775899 -0.041556001 -0.067334898
0.45468301 -0.0243685 -0.067334898
0.44914499 -0.00718102 -0.067334898
0.441836 0.019971199 -0.067334898
0.43968999 0.027194001 -0.067334898
0.444186 0.0100065 -0.067334898
0.40746099 0.086609297 -0.067334898
0.40183601 0.095944002 -0.067334898
0.43235001 0.044381499 -0.067334898
0.424649 0.056904402 -0.067334898
0.42118099 0.061569002 -0.067334898
0.41113001 0.078756496 -0.067334898
-0.34878901 0.112571 -0.067334898
-0.349309 0.113131 -0.067334898
-0.3626 0.130319 -0.067334898
-0.38316399 0.161798 -0.067334898
-0.38429499 0.164694 -0.067334898
-0.36597699 0.13640299 -0.067334898
-0.37403801 0.147506 -0.067334898
-0.38665801 0.181881 -0.067334898
-0.38515899 0.19906899 -0.067334898
-0.38316399 0.209314 -0.067334898
-0.380481 0.21625599 -0.067334898
-0.37221301 0.23344401 -0.067334898
-0.36597699 0.246843 -0.067334898
-0.36430299 0.25063199 -0.067334898
-0.35661399 0.26781899 -0.067334898
-0.35147899 0.28500599 -0.067334898
-0.34878901 0.29832301 -0.067334898
-0.34792599 0.302194 -0.067334898
-0.344219 0.319381 -0.067334898
-0.33896199 0.33656901 -0.067334898
-0.33322299 0.35375601 -0.067334898
-0.33160201 0.358464 -0.067334898
-0.32538301 0.37094399 -0.067334898
-0.211289 0.34442899 -0.067334898
-0.22467799 0.35375601 -0.067334898
-0.228477 0.35801101 -0.067334898
-0.242402 0.37094399 -0.067334898
-0.14253899 0.22103301 -0.067334898
-0.15026499 0.23344401 -0.067334898
-0.125352 0.21298601 -0.067334898
-0.13541199 0.21625599 -0.067334898
-0.108164 0.209851 -0.067334898
-0.090976499 0.207606 -0.067334898
-0.073789001 0.20433301 -0.067334898
-0.056601498 0.198725 -0.067334898
-0.0574526 0.19906899 -0.067334898
-0.039414 0.190892 -0.067334898
-0.022226499 0.185095 -0.067334898
-0.0050390102 0.184104 -0.067334898
0.0121485 0.186543 -0.067334898
0.029336 0.190071 -0.067334898
0.0465235 0.193544 -0.067334898
0.063711002 0.197531 -0.067334898
-0.15852199 0.25063199 -0.067334898
-0.15972701 0.25278199 -0.067334898
-0.16933601 0.26781899 -0.067334898
-0.17691401 0.29126301 -0.067334898
-0.17986199 0.302194 -0.067334898
-0.17572901 0.28500599 -0.067334898
-0.18482099 0.319381 -0.067334898
-0.17691401 0.32876 -0.067334898
-0.15972701 0.32832 -0.067334898
-0.14253899 0.328174 -0.067334898
-0.194102 0.35198599 -0.067334898
-0.193408 0.35375601 -0.067334898
-0.18875299 0.37094399 -0.067334898
-0.125352 0.330852 -0.067334898
-0.108164 0.336009 -0.067334898
-0.106685 0.33656901 -0.067334898
-0.090976499 0.343243 -0.067334898
-0.073789001 0.35172799 -0.067334898
-0.069787398 0.35375601 -0.067334898
-0.056601498 0.360912 -0.067334898
-0.040679701 0.37094399 -0.067334898
-0.31441399 0.385883 -0.067334898
-0.31196499 0.38813099 -0.067334898
-0.297227 0.39599901 -0.067334898
-0.28003901 0.39611 -0.067334898
-0.26285201 0.38757399 -0.067334898
-0.26361099 0.38813099 -0.067334898
-0.245664 0.37365699 -0.067334898
-0.184075 0.38813099 -0.067334898
-0.178839 0.40531901 -0.067334898
-0.17691401 0.41117299 -0.067334898
-0.171703 0.42250699 -0.067334898
-0.159849 0.43969399 -0.067334898
-0.15972701 0.43983701 -0.067334898
-0.144536 0.456882 -0.067334898
-0.14253899 0.45897701 -0.067334898
-0.125497 0.474069 -0.067334898
-0.125352 0.47416899 -0.067334898
-0.108164 0.48467401 -0.067334898
-0.095776401 0.491256 -0.067334898
-0.090976499 0.493303 -0.067334898
-0.073789001 0.50050998 -0.067334898
-0.039414 0.37175801 -0.067334898
-0.022226499 0.38293701 -0.067334898
-0.0132602 0.38813099 -0.067334898
-0.0050390102 0.39333299 -0.067334898
-0.056601498 0.435377 -0.067334898
-0.059032202 0.43969399 -0.067334898
-0.039414 0.426442 -0.067334898
-0.022226499 0.424633 -0.067334898
-0.0050390102 0.42315 -0.067334898
0.0083480803 0.40531901 -0.067334898
-0.00137743 0.42250699 -0.067334898
-0.0575867 0.456882 -0.067334898
-0.056601498 0.45952001 -0.067334898
-0.051374201 0.474069 -0.067334898
-0.045578498 0.491256 -0.067334898
-0.056601498 0.50509697 -0.067334898
0.069314398 0.19906899 -0.067334898
0.080898501 0.202638 -0.067334898
0.098085999 0.207867 -0.067334898
0.115273 0.21212199 -0.067334898
0.132461 0.215278 -0.067334898
0.14057501 0.21625599 -0.067334898
0.149648 0.21696 -0.067334898
0.16683599 0.21769001 -0.067334898
0.18402299 0.218238 -0.067334898
0.20121101 0.218511 -0.067334898
0.33871099 0.162504 -0.067334898
0.33569899 0.164694 -0.067334898
0.235586 0.21450301 -0.067334898
0.226558 0.21625599 -0.067334898
0.218399 0.217402 -0.067334898
0.25277299 0.209365 -0.067334898
0.269961 0.202363 -0.067334898
0.287148 0.19457901 -0.067334898
0.27764601 0.19906899 -0.067334898
0.30433601 0.18501399 -0.067334898
0.32152301 0.17451 -0.067334898
0.309854 0.181881 -0.067334898
0.39054 0.113131 -0.067334898
0.39027399 0.113522 -0.067334898
0.37664899 0.130319 -0.067334898
0.37308601 0.134085 -0.067334898
0.35806799 0.147506 -0.067334898
0.35589799 0.14923 -0.067334898
-0.28003901 -0.385306 -0.073440701
-0.26285201 -0.35093099 -0.076157004
-0.245664 -0.33374399 -0.075126797
-0.211289 -0.31655601 -0.074760199
-0.28003901 -0.179056 -0.078180999
-0.228477 -0.213431 -0.0781997
-0.211289 -0.213431 -0.083459899
-0.26285201 -0.196244 -0.0771152
-0.073789001 -0.385306 -0.072410703
-0.056601498 -0.368119 -0.083030298
-0.194102 -0.29936901 -0.073261499
-0.194102 -0.230619 -0.070593096
-0.34878901 -0.110306 -0.077659696
-0.36597699 -0.075930998 -0.076897196
-0.36597699 -0.058743499 -0.084274098
-0.36597699 0.027194001 -0.081197999
-0.36597699 0.044381499 -0.074222498
-0.34878901 0.078756496 -0.078468703
0.218399 -0.385306 -0.082845598
0.30433601 -0.385306 -0.067560703
0.32152301 -0.368119 -0.079465903
0.33871099 -0.368119 -0.071175903
0.35589799 -0.35093099 -0.082447603
0.37308601 -0.35093099 -0.078367397
0.39027399 -0.35093099 -0.074261501
0.40746099 -0.35093099 -0.068646401
0.40746099 -0.33374399 -0.083791301
0.424649 -0.33374399 -0.077529997
0.441836 -0.31655601 -0.083136402
0.459023 -0.31655601 -0.074318796
0.47621101 -0.29936901 -0.078941099
0.441836 -0.213431 -0.078728803
0.459023 -0.213431 -0.076375298
0.47621101 -0.213431 -0.079441004
0.441836 -0.196244 -0.076606996
0.441836 -0.179056 -0.081551798
0.49339801 -0.28218099 -0.0767041
0.49339801 -0.264994 -0.084425703
0.51058602 -0.264994 -0.070738003
0.51058602 -0.247806 -0.076752402
0.51058602 -0.230619 -0.078214198
0.49339801 -0.213431 -0.079306997
0.51058602 -0.213431 -0.073359497
0.49339801 -0.196244 -0.067957103
0.441836 0.0100065 -0.073467597
0.40746099 0.078756496 -0.077343903
0.424649 0.044381499 -0.083810002
-0.34878901 0.113131 -0.067670196
-0.34878901 0.130319 -0.076642998
-0.38316399 0.164694 -0.0684589
-0.36597699 0.147506 -0.072799198
-0.34878901 0.147506 -0.083614998
-0.36597699 0.164694 -0.0800047
-0.38316399 0.181881 -0.071101099
-0.38316399 0.19906899 -0.069584697
-0.36597699 0.181881 -0.0827424
-0.36597699 0.19906899 -0.083485402
-0.36597699 0.21625599 -0.080973603
-0.36597699 0.23344401 -0.073215097
-0.33160201 0.113131 -0.080373898
-0.34878901 0.25063199 -0.079915702
-0.34878901 0.26781899 -0.0758228
-0.34878901 0.28500599 -0.071781799
-0.211289 0.302194 -0.0842207
-0.33160201 0.319381 -0.0798527
-0.33160201 0.33656901 -0.075971499
-0.33160201 0.35375601 -0.070212997
-0.211289 0.319381 -0.076129302
-0.211289 0.33656901 -0.070896298
-0.228477 0.35375601 -0.072339401
-0.15972701 0.21625599 -0.083636999
-0.14253899 0.21625599 -0.072631702
-0.15972701 0.23344401 -0.077359699
-0.073789001 0.19906899 -0.084053203
-0.022226499 0.181881 -0.078161903
-0.0050390102 0.181881 -0.0750442
0.0121485 0.181881 -0.081195302
-0.17691401 0.25063199 -0.082524501
-0.17691401 0.26781899 -0.074050099
-0.15972701 0.25063199 -0.068736598
-0.194102 0.28500599 -0.083688997
-0.17691401 0.28500599 -0.068572901
-0.194102 0.302194 -0.0745029
-0.194102 0.319381 -0.069164097
-0.194102 0.33656901 -0.068366699
-0.17691401 0.33656901 -0.069405302
-0.15972701 0.33656901 -0.072035298
-0.14253899 0.33656901 -0.074418403
-0.17691401 0.35375601 -0.073009796
-0.17691401 0.37094399 -0.074073702
-0.15972701 0.35375601 -0.0790594
-0.14253899 0.35375601 -0.083678499
-0.15972701 0.37094399 -0.083522096
-0.125352 0.33656901 -0.074736103
-0.108164 0.33656901 -0.068902001
-0.073789001 0.35375601 -0.078551799
-0.039414 0.37094399 -0.069862098
-0.31441399 0.38813099 -0.077920698
-0.26285201 0.38813099 -0.069468804
-0.17691401 0.38813099 -0.073067203
-0.17691401 0.40531901 -0.069259003
-0.15972701 0.42250699 -0.0812511
-0.15972701 0.43969399 -0.067624599
-0.14253899 0.456882 -0.076952197
-0.125352 0.474069 -0.080813698
-0.073789001 0.50844401 -0.0822042
-0.0050390102 0.38813099 -0.075306997
-0.056601498 0.43969399 -0.069051102
-0.039414 0.43969399 -0.0801934
0.0121485 0.40531901 -0.070045799
0.029336 0.40531901 -0.084452897
0.0121485 0.42250699 -0.072914302
0.029336 0.42250699 -0.082676999
-0.056601498 0.456882 -0.068832003
-0.039414 0.491256 -0.074898399
-0.056601498 0.50844401 -0.071203299
-0.039414 0.50844401 -0.0739659
0.080898501 0.19906899 -0.076051801
0.149648 0.21625599 -0.069274202
0.16683599 0.21625599 -0.070408903
0.18402299 0.21625599 -0.071185499
0.20121101 0.21625599 -0.072104096
0.269961 0.19906899 -0.073463403
0.218399 0.21625599 -0.069942698
0.30433601 0.181881 -0.073294103
0.37308601 0.130319 -0.0745233
0.39027399 0.113131 -0.068070702
0.35589799 0.147506 -0.071484402
-0.28003901 -0.39439899 -0.0501475
-0.28936499 -0.385306 -0.0501475
-0.26285201 -0.39705101 -0.0501475
-0.245664 -0.397324 -0.0501475
-0.228477 -0.397154 -0.0501475
-0.211289 -0.396934 -0.0501475
-0.28805399 -0.368119 -0.0501475
-0.28003901 -0.35280401 -0.0501475
-0.27898601 -0.35093099 -0.0501475
-0.264871 -0.33374399 -0.0501475
-0.26285201 -0.33216599 -0.0501475
-0.245664 -0.32189301 -0.0501475
-0.23291799 -0.31655601 -0.0501475
-0.228477 -0.31479999 -0.0501475
-0.211289 -0.30711699 -0.0501475
-0.28003901 -0.19711 -0.0501475
-0.28118801 -0.196244 -0.0501475
-0.297227 -0.183468 -0.0501475
-0.30210599 -0.179056 -0.0501475
-0.245664 -0.215832 -0.0501475
-0.25133899 -0.213431 -0.0501475
-0.228477 -0.222122 -0.0501475
-0.211289 -0.22712 -0.0501475
-0.26285201 -0.20793401 -0.0501475
-0.194102 -0.39674199 -0.0501475
-0.17691401 -0.39657599 -0.0501475
-0.15972701 -0.396503 -0.0501475
-0.14253899 -0.39628601 -0.0501475
-0.125352 -0.39598101 -0.0501475
-0.108164 -0.39585999 -0.0501475
-0.090976499 -0.39553401 -0.0501475
-0.073789001 -0.393341 -0.0501475
-0.057180598 -0.385306 -0.0501475
-0.056601498 -0.384855 -0.0501475
-0.039414 -0.37086499 -0.0501475
-0.033722602 -0.368119 -0.0501475
-0.022226499 -0.366166 -0.0501475
-0.0050390102 -0.36586401 -0.0501475
0.0121485 -0.36568901 -0.0501475
0.029336 -0.365655 -0.0501475
0.0465235 -0.365444 -0.0501475
0.063711002 -0.36512399 -0.0501475
-0.20294701 -0.29936901 -0.0501475
-0.196403 -0.28218099 -0.0501475
-0.194102 -0.26817101 -0.0501475
-0.193748 -0.264994 -0.0501475
-0.194102 -0.24822301 -0.0501475
-0.194166 -0.247806 -0.0501475
-0.20388199 -0.230619 -0.0501475
-0.34878901 -0.12983599 -0.0501475
-0.350793 -0.12749401 -0.0501475
-0.35965401 -0.110306 -0.0501475
-0.365233 -0.093118504 -0.0501475
-0.36597699 -0.090950802 -0.0501475
-0.374607 -0.075930998 -0.0501475
-0.38316399 -0.059197899 -0.0501475
-0.383277 -0.058743499 -0.0501475
-0.38398001 -0.041556001 -0.0501475
-0.31441399 -0.164794 -0.0501475
-0.31689799 -0.161869 -0.0501475
-0.33160201 -0.147495 -0.0501475
-0.33442101 -0.14468101 -0.0501475
-0.38316399 -0.0362726 -0.0501475
-0.38141799 -0.0243685 -0.0501475
-0.38212001 -0.00718102 -0.0501475
-0.383109 0.0100065 -0.0501475
-0.38024899 0.027194001 -0.0501475
-0.37626201 0.044381499 -0.0501475
-0.37151501 0.061569002 -0.0501475
-0.36597699 0.077241004 -0.0501475
-0.36540201 0.078756496 -0.0501475
-0.36134899 0.095944002 -0.0501475
0.20121101 -0.38975599 -0.0501475
0.193067 -0.385306 -0.0501475
0.080898501 -0.364764 -0.0501475
0.098085999 -0.36409599 -0.0501475
0.115273 -0.36341301 -0.0501475
0.132461 -0.36299899 -0.0501475
0.149648 -0.36242601 -0.0501475
0.16683599 -0.36465099 -0.0501475
0.18402299 -0.37662601 -0.0501475
0.174264 -0.368119 -0.0501475
0.218399 -0.39242899 -0.0501475
0.235586 -0.39177501 -0.0501475
0.25277299 -0.39176601 -0.0501475
0.269961 -0.39139599 -0.0501475
0.287148 -0.39062601 -0.0501475
0.30433601 -0.38972899 -0.0501475
0.32152301 -0.386691 -0.0501475
0.32664499 -0.385306 -0.0501475
0.33871099 -0.38217101 -0.0501475
0.35589799 -0.37757799 -0.0501475
0.37308601 -0.37267199 -0.0501475
0.39021099 -0.368119 -0.0501475
0.39027399 -0.36810201 -0.0501475
0.40746099 -0.36243901 -0.0501475
0.424649 -0.35479599 -0.0501475
0.43153 -0.35093099 -0.0501475
0.441836 -0.34392801 -0.0501475
0.45803401 -0.33374399 -0.0501475
0.459023 -0.33323899 -0.0501475
0.47621101 -0.32313201 -0.0501475
0.485598 -0.31655601 -0.0501475
0.49339801 -0.30989701 -0.0501475
0.50472701 -0.29936901 -0.0501475
0.51058602 -0.293071 -0.0501475
0.51821101 -0.28218099 -0.0501475
0.52646297 -0.264994 -0.0501475
0.52777302 -0.26105899 -0.0501475
0.53214198 -0.247806 -0.0501475
0.53603297 -0.230619 -0.0501475
0.53527999 -0.213431 -0.0501475
0.53150499 -0.196244 -0.0501475
0.52777302 -0.18731099 -0.0501475
0.51830202 -0.179056 -0.0501475
0.459023 -0.168459 -0.0501475
0.45811501 -0.161869 -0.0501475
0.47621101 -0.177314 -0.0501475
0.459023 -0.145789 -0.0501475
0.45917499 -0.14468101 -0.0501475
0.46130499 -0.12749401 -0.0501475
0.462807 -0.110306 -0.0501475
0.461999 -0.093118504 -0.0501475
0.45989901 -0.075930998 -0.0501475
0.46064401 -0.058743499 -0.0501475
0.461647 -0.041556001 -0.0501475
0.49339801 -0.174749 -0.0501475
0.51058602 -0.176108 -0.0501475
0.45950699 -0.0243685 -0.0501475
0.459023 -0.0219687 -0.0501475
0.45532799 -0.00718102 -0.0501475
0.44997001 0.0100065 -0.0501475
0.44495401 0.027194001 -0.0501475
0.441836 0.037377201 -0.0501475
0.43918699 0.044381499 -0.0501475
0.42930299 0.061569002 -0.0501475
0.424649 0.0683451 -0.0501475
0.41837499 0.078756496 -0.0501475
0.40791601 0.095944002 -0.0501475
-0.36597699 0.11112 -0.0501475
-0.36742899 0.113131 -0.0501475
-0.38003999 0.130319 -0.0501475
-0.38316399 0.135068 -0.0501475
-0.39069599 0.147506 -0.0501475
-0.396126 0.164694 -0.0501475
-0.396036 0.181881 -0.0501475
-0.39452401 0.19906899 -0.0501475
-0.391332 0.21625599 -0.0501475
-0.38707 0.23344401 -0.0501475
-0.38316399 0.24724901 -0.0501475
-0.38179401 0.25063199 -0.0501475
-0.37530699 0.26781899 -0.0501475
-0.36671701 0.28500599 -0.0501475
-0.36597699 0.28612199 -0.0501475
-0.35873401 0.302194 -0.0501475
-0.356031 0.319381 -0.0501475
-0.353071 0.33656901 -0.0501475
-0.34878901 0.34848899 -0.0501475
-0.34607801 0.35375601 -0.0501475
-0.33160201 0.370244 -0.0501475
-0.33073801 0.37094399 -0.0501475
-0.108164 0.213659 -0.0501475
-0.119215 0.21625599 -0.0501475
-0.125352 0.21911 -0.0501475
-0.138937 0.23344401 -0.0501475
-0.090976499 0.21146999 -0.0501475
-0.073789001 0.20829999 -0.0501475
-0.039414 0.19610099 -0.0501475
-0.046373099 0.19906899 -0.0501475
-0.022226499 0.189973 -0.0501475
-0.0050390102 0.18884601 -0.0501475
-0.056601498 0.202903 -0.0501475
0.0121485 0.191535 -0.0501475
0.029336 0.195245 -0.0501475
0.0465235 0.19897 -0.0501475
0.046963599 0.19906899 -0.0501475
0.063711002 0.203509 -0.0501475
-0.14253899 0.24103799 -0.0501475
-0.146805 0.25063199 -0.0501475
-0.154708 0.26781899 -0.0501475
-0.15904 0.28500599 -0.0501475
-0.15714701 0.302194 -0.0501475
-0.14253899 0.316796 -0.0501475
-0.135049 0.319381 -0.0501475
-0.125352 0.323295 -0.0501475
-0.108164 0.33283401 -0.0501475
-0.101546 0.33656901 -0.0501475
-0.090976499 0.34255999 -0.0501475
-0.074996397 0.35375601 -0.0501475
-0.073789001 0.35466501 -0.0501475
-0.056601498 0.369793 -0.0501475
-0.055517599 0.37094399 -0.0501475
-0.31441399 0.38310999 -0.0501475
-0.30440101 0.38813099 -0.0501475
-0.297227 0.39023101 -0.0501475
-0.28003901 0.390488 -0.0501475
-0.26285201 0.384799 -0.0501475
-0.27087599 0.38813099 -0.0501475
-0.245664 0.37693101 -0.0501475
-0.228477 0.37268701 -0.0501475
-0.211289 0.37813801 -0.0501475
-0.203252 0.38813099 -0.0501475
-0.194102 0.403056 -0.0501475
-0.192753 0.40531901 -0.0501475
-0.18085 0.42250699 -0.0501475
-0.17691401 0.42701599 -0.0501475
-0.163454 0.43969399 -0.0501475
-0.073789001 0.42303601 -0.0501475
-0.0758387 0.43969399 -0.0501475
-0.15972701 0.44260201 -0.0501475
-0.14253899 0.45655701 -0.0501475
-0.142123 0.456882 -0.0501475
-0.125352 0.46813199 -0.0501475
-0.113298 0.474069 -0.0501475
-0.073789001 0.44564801 -0.0501475
-0.108164 0.476015 -0.0501475
-0.090976499 0.48190901 -0.0501475
-0.073789001 0.484115 -0.0501475
-0.039414 0.38614199 -0.0501475
-0.036862701 0.38813099 -0.0501475
-0.024084199 0.40531901 -0.0501475
-0.056601498 0.418167 -0.0501475
-0.073100902 0.42250699 -0.0501475
-0.039414 0.41752201 -0.0501475
-0.069980301 0.456882 -0.0501475
-0.065850899 0.474069 -0.0501475
0.080898501 0.208701 -0.0501475
0.098085999 0.213209 -0.0501475
0.111771 0.21625599 -0.0501475
0.115273 0.21698301 -0.0501475
0.132461 0.220103 -0.0501475
0.149648 0.222526 -0.0501475
0.16683599 0.224323 -0.0501475
0.18402299 0.22542299 -0.0501475
0.20121101 0.22535799 -0.0501475
0.218399 0.22392599 -0.0501475
0.235586 0.22113401 -0.0501475
0.269961 0.210393 -0.0501475
0.25419301 0.21625599 -0.0501475
0.25277299 0.216699 -0.0501475
0.30433601 0.193129 -0.0501475
0.293367 0.19906899 -0.0501475
0.32152301 0.181789 -0.0501475
0.32139599 0.181881 -0.0501475
0.33871099 0.16845 -0.0501475
0.287148 0.202144 -0.0501475
0.40746099 0.096613497 -0.0501475
0.39629599 0.113131 -0.0501475
0.39027399 0.122563 -0.0501475
0.38424599 0.130319 -0.0501475
0.37308601 0.14172199 -0.0501475
0.36618999 0.147506 -0.0501475
0.35589799 0.155531 -0.0501475
0.34382501 0.164694 -0.0501475
-0.28003901 -0.368119 -0.067167297
-0.26285201 -0.33374399 -0.053001799
-0.228477 -0.31655601 -0.0550997
-0.28003901 -0.196244 -0.052274801
-0.297227 -0.179056 -0.056924
-0.245664 -0.213431 -0.061600499
-0.039414 -0.368119 -0.057104301
-0.194102 -0.28218099 -0.0595438
-0.194102 -0.247806 -0.0504684
-0.34878901 -0.12749401 -0.053958599
-0.38316399 -0.058743499 -0.0504025
-0.38316399 -0.041556001 -0.051773299
-0.31441399 -0.161869 -0.056456301
-0.33160201 -0.14468101 -0.058019899
-0.36597699 0.061569002 -0.062568396
-0.34878901 0.095944002 -0.066501103
0.20121101 -0.385306 -0.061005302
0.18402299 -0.368119 -0.064414002
0.32152301 -0.385306 -0.054178201
0.35589799 -0.368119 -0.066117302
0.37308601 -0.368119 -0.059395101
0.424649 -0.35093099 -0.057089102
0.441836 -0.33374399 -0.064918198
0.47621101 -0.31655601 -0.059845001
0.459023 -0.196244 -0.065404996
0.47621101 -0.196244 -0.066647798
0.459023 -0.179056 -0.054550599
0.47621101 -0.179056 -0.051831499
0.49339801 -0.29936901 -0.063169897
0.51058602 -0.28218099 -0.060348298
0.52777302 -0.247806 -0.0573599
0.52777302 -0.230619 -0.061927099
0.52777302 -0.213431 -0.058191299
0.51058602 -0.196244 -0.063605897
0.49339801 -0.179056 -0.054044399
0.51058602 -0.179056 -0.052358899
0.52777302 -0.196244 -0.052767299
0.459023 -0.14468101 -0.050464001
0.459023 -0.12749401 -0.057626799
0.459023 -0.110306 -0.063833602
0.459023 -0.093118504 -0.059944902
0.459023 -0.075930998 -0.0533325
0.459023 -0.058743499 -0.0597983
0.459023 -0.041556001 -0.063281998
0.459023 -0.0243685 -0.052810699
0.441836 0.027194001 -0.061361901
0.40746099 0.095944002 -0.051534701
0.424649 0.061569002 -0.060567599
-0.36597699 0.113131 -0.051874802
-0.36597699 0.130319 -0.064418502
-0.38316399 0.147506 -0.0592582
-0.38316399 0.21625599 -0.063988902
-0.38316399 0.23344401 -0.054988001
-0.36597699 0.25063199 -0.065812603
-0.36597699 0.26781899 -0.0583832
-0.36597699 0.28500599 -0.0507241
-0.34878901 0.302194 -0.0658888
-0.34878901 0.319381 -0.061748698
-0.34878901 0.33656901 -0.056161199
-0.211289 0.35375601 -0.063280798
-0.228477 0.37094399 -0.052366301
-0.211289 0.37094399 -0.054838501
-0.14253899 0.23344401 -0.056674201
-0.125352 0.21625599 -0.057651602
-0.056601498 0.19906899 -0.066189103
0.063711002 0.19906899 -0.063146003
-0.15972701 0.26781899 -0.057167899
-0.17691401 0.302194 -0.065604299
-0.15972701 0.28500599 -0.0509836
-0.15972701 0.302194 -0.052870199
-0.17691401 0.319381 -0.0656773
-0.15972701 0.319381 -0.0615368
-0.14253899 0.319381 -0.055170499
-0.194102 0.35375601 -0.067104898
-0.194102 0.37094399 -0.064290598
-0.073789001 0.35375601 -0.052204799
-0.194102 0.38813099 -0.0587474
-0.17691401 0.42250699 -0.059837598
-0.073789001 0.43969399 -0.053123198
-0.14253899 0.456882 -0.0512385
-0.125352 0.474069 -0.066702403
-0.090976499 0.491256 -0.063460603
-0.073789001 0.491256 -0.0558572
-0.022226499 0.38813099 -0.0604822
-0.022226499 0.40531901 -0.051215399
-0.0050390102 0.40531901 -0.059000898
-0.056601498 0.42250699 -0.057484999
-0.039414 0.42250699 -0.0607985
-0.022226499 0.42250699 -0.062498499
-0.0050390102 0.42250699 -0.065935403
-0.056601498 0.474069 -0.059372298
-0.056601498 0.491256 -0.058818799
0.115273 0.21625599 -0.052988999
0.132461 0.21625599 -0.064184703
0.33871099 0.164694 -0.061553501
0.235586 0.21625599 -0.063365601
0.25277299 0.21625599 -0.051449701
0.287148 0.19906899 -0.058229301
-0.28003901 -0.39413199 -0.032959901
-0.291944 -0.385306 -0.032959901
-0.26285201 -0.39634299 -0.032959901
-0.245664 -0.396786 -0.032959901
-0.228477 -0.39685899 -0.032959901
-0.211289 -0.396631 -0.032959901
-0.29176801 -0.368119 -0.032959901
-0.28260401 -0.35093099 -0.032959901
-0.28003901 -0.346645 -0.032959901
-0.27010301 -0.33374399 -0.032959901
-0.26285201 -0.32684001 -0.032959901
-0.245664 -0.31690401 -0.032959901
-0.244839 -0.31655601 -0.032959901
-0.228477 -0.31071401 -0.032959901
-0.211289 -0.30420899 -0.032959901
-0.28003901 -0.203536 -0.032959901
-0.290712 -0.196244 -0.032959901
-0.297227 -0.191122 -0.032959901
-0.309856 -0.179056 -0.032959901
-0.245664 -0.22022399 -0.032959901
-0.262297 -0.213431 -0.032959901
-0.211289 -0.231498 -0.032959901
-0.21320599 -0.230619 -0.032959901
-0.228477 -0.22561599 -0.032959901
-0.26285201 -0.213182 -0.032959901
-0.194102 -0.396575 -0.032959901
-0.17691401 -0.396575 -0.032959901
-0.15972701 -0.39662001 -0.032959901
-0.14253899 -0.396909 -0.032959901
-0.125352 -0.39688501 -0.032959901
-0.108164 -0.39671201 -0.032959901
-0.090976499 -0.39632699 -0.032959901
