# .PCD v0.7 - Point Cloud Data file format
VERSION 0.7
FIELDS x y z
SIZE 4 4 4
TYPE F F F
COUNT 1 1 1
WIDTH 1498
HEIGHT 1
VIEWPOINT 0 0 0 1 0 0 0
POINTS 1498
DATA ascii
-0.38868499 0.044381499 -0.015772499
-0.38316399 0.061535101 -0.015772499
-0.38315099 0.061569002 -0.015772499
0.55619502 -0.213431 -0.015772499
0.554923 -0.196244 -0.015772499
0.55106801 -0.179056 -0.015772499
0.49339801 -0.14999001 -0.015772499
0.47827101 -0.14468101 -0.015772499
0.51058602 -0.148848 -0.015772499
0.54496098 -0.16538 -0.015772499
0.54193699 -0.161869 -0.015772499
0.52777302 -0.15279999 -0.015772499
0.47621101 -0.14145499 -0.015772499
0.46569499 -0.041556001 -0.015772499
0.464454 -0.0243685 -0.015772499
0.461373 -0.00718102 -0.015772499
0.459023 0.0022819899 -0.015772499
0.45684201 0.0100065 -0.015772499
0.45081499 0.027194001 -0.015772499
-0.108164 0.219822 -0.015772499
-0.124466 0.23344401 -0.015772499
-0.090976499 0.215 -0.015772499
-0.097568803 0.21625599 -0.015772499
-0.073789001 0.212174 -0.015772499
-0.14253899 0.27007201 -0.015772499
-0.14550801 0.28500599 -0.015772499
-0.14565399 0.302194 -0.015772499
-0.125352 0.234703 -0.015772499
-0.13561299 0.25063199 -0.015772499
-0.142014 0.26781899 -0.015772499
-0.14253899 0.31106699 -0.015772499
-0.135759 0.319381 -0.015772499
-0.125352 0.330154 -0.015772499
-0.12033 0.33656901 -0.015772499
-0.297227 0.387674 -0.015772499
-0.31441399 0.38479301 -0.015772499
-0.28003901 0.38798699 -0.015772499
-0.26285201 0.38662699 -0.015772499
-0.245664 0.385194 -0.015772499
-0.228477 0.386323 -0.015772499
-0.221209 0.38813099 -0.015772499
-0.211289 0.39273801 -0.015772499
0.218399 0.23102701 -0.015772499
0.20121101 0.23212799 -0.015772499
0.235586 0.228102 -0.015772499
0.25277299 0.22357599 -0.015772499
0.269961 0.217252 -0.015772499
0.33871099 0.177928 -0.015772499
0.333298 0.181881 -0.015772499
0.32152301 0.189871 -0.015772499
0.30654001 0.19906899 -0.015772499
0.287148 0.209224 -0.015772499
0.27218699 0.21625599 -0.015772499
0.30433601 0.200284 -0.015772499
0.35589799 0.16449299 -0.015772499
0.355663 0.164694 -0.015772499
0.37308601 0.14938501 -0.015772499
-0.194102 -0.28218099 -0.017583201
-0.38316399 -0.075930998 -0.027756199
-0.38316399 0.044381499 -0.0298572
0.54496098 -0.179056 -0.0288228
0.47621101 -0.14468101 -0.021738499
0.52777302 -0.161869 -0.0300903
-0.125352 0.23344401 -0.0190302
-0.14253899 0.26781899 -0.018750601
0.269961 0.21625599 -0.023928899
0.30433601 0.19906899 -0.024467099
0.37308601 0.147506 -0.027927199
-0.28003901 -0.38971499 0.00141507
-0.28516901 -0.385306 0.00141507
-0.26285201 -0.39424101 0.00141507
-0.245664 -0.39524001 0.00141507
-0.228477 -0.39575401 0.00141507
-0.211289 -0.396106 0.00141507
-0.28510499 -0.368119 0.00141507
-0.28003901 -0.36015201 0.00141507
-0.27395999 -0.35093099 0.00141507
-0.26285201 -0.336871 0.00141507
-0.25970399 -0.33374399 0.00141507
-0.245664 -0.32431901 0.00141507
-0.228477 -0.317698 0.00141507
-0.224869 -0.31655601 0.00141507
-0.211289 -0.31184 0.00141507
-0.228477 -0.231925 0.00141507
-0.232999 -0.230619 0.00141507
-0.211289 -0.236369 0.00141507
-0.245664 -0.226861 0.00141507
-0.194102 -0.29955399 0.00141507
-0.19396099 -0.29936901 0.00141507
-0.18563899 -0.28218099 0.00141507
-0.18215901 -0.264994 0.00141507
-0.189522 -0.247806 0.00141507
-0.194102 -0.24416099 0.00141507
-0.38490701 -0.075930998 0.00141507
-0.391776 -0.058743499 0.00141507
-0.399854 -0.041556001 0.00141507
-0.399748 -0.0243685 0.00141507
-0.39881501 -0.00718102 0.00141507
-0.400179 0.0100065 0.00141507
-0.39901799 0.027194001 0.00141507
-0.39471501 0.044381499 0.00141507
-0.38829601 0.061569002 0.00141507
0.56171298 -0.213431 0.00141507
0.560534 -0.196244 0.00141507
0.55653101 -0.179056 0.00141507
0.52777302 -0.14617801 0.00141507
0.52316099 -0.14468101 0.00141507
0.54496098 -0.15635499 0.00141507
0.49339801 -0.143556 0.00141507
0.47621101 -0.13368399 0.00141507
0.51058602 -0.143259 0.00141507
0.549523 -0.161869 0.00141507
0.46603 -0.041556001 0.00141507
0.46461099 -0.0243685 0.00141507
0.461496 -0.00718102 0.00141507
0.459023 0.0028137299 0.00141507
0.45717201 0.0100065 0.00141507
0.451433 0.027194001 0.00141507
-0.108164 0.222323 0.00141507
-0.120943 0.23344401 0.00141507
-0.090976499 0.215718 0.00141507
-0.093375199 0.21625599 0.00141507
-0.073789001 0.21246199 0.00141507
-0.14253899 0.280471 0.00141507
-0.143491 0.28500599 0.00141507
-0.145703 0.302194 0.00141507
-0.125352 0.23927499 0.00141507
-0.132264 0.25063199 0.00141507
-0.139229 0.26781899 0.00141507
-0.143241 0.319381 0.00141507
-0.14253899 0.32124001 0.00141507
-0.13573 0.33656901 0.00141507
-0.30610499 0.38813099 0.00141507
-0.31441399 0.386787 0.00141507
-0.297227 0.38895899 0.00141507
-0.28003901 0.389256 0.00141507
-0.245664 0.38770601 0.00141507
-0.257007 0.38813099 0.00141507
-0.26285201 0.388482 0.00141507
-0.231757 0.38813099 0.00141507
-0.228477 0.38842699 0.00141507
-0.211289 0.39121199 0.00141507
0.218399 0.232711 0.00141507
0.21046001 0.23344401 0.00141507
0.235586 0.229693 0.00141507
0.25277299 0.225025 0.00141507
0.269961 0.218758 0.00141507
0.33871099 0.180327 0.00141507
0.33660299 0.181881 0.00141507
0.32152301 0.19204301 0.00141507
0.30993 0.19906899 0.00141507
0.287148 0.210921 0.00141507
0.27571601 0.21625599 0.00141507
0.30433601 0.20208099 0.00141507
0.20121101 0.233743 0.00141507
0.37308601 0.15059599 0.00141507
0.35793999 0.164694 0.00141507
0.35589799 0.166449 0.00141507
-0.194102 -0.39655 0.00141507
-0.17691401 -0.39613199 0.00141507
-0.38316399 0.075703099 0.00141507
-0.38316399 0.090314597 0.00141507
-0.38696501 0.095944002 0.00141507
-0.38230801 0.078756496 0.00141507
0.55344099 -0.247806 0.00141507
0.55906999 -0.230619 0.00141507
0.468474 -0.075930998 0.00141507
0.467177 -0.058743499 0.00141507
-0.417539 0.136812 0.00141507
-0.42040899 0.147506 0.00141507
-0.42212999 0.164694 0.00141507
-0.41406 0.130319 0.00141507
-0.422223 0.181881 0.00141507
-0.42057201 0.19906899 0.00141507
-0.41835701 0.21625599 0.00141507
-0.417539 0.221443 0.00141507
-0.41454399 0.23344401 0.00141507
-0.129233 0.35375601 0.00141507
-0.128125 0.37094399 0.00141507
-0.194102 0.396745 0.00141507
-0.17691401 0.402614 0.00141507
-0.15972701 0.40475801 0.00141507
-0.14253899 0.39975801 0.00141507
-0.132967 0.38813099 0.00141507
-0.28003901 -0.35093099 -0.0040853601
-0.26285201 -0.33374399 -0.00162536
-0.228477 -0.31655601 -0.00097113999
-0.228477 -0.230619 -0.0070413402
-0.194102 -0.29936901 0.00121677
-0.194102 -0.247806 -0.0108724
-0.38316399 0.061569002 -0.015733801
0.49339801 -0.14468101 -0.0016808501
0.51058602 -0.14468101 -0.00569236
0.54496098 -0.161869 -0.0102884
-0.14253899 0.319381 -0.00018293
-0.125352 0.33656901 -0.0103308
-0.297227 0.38813099 -0.0087897796
-0.28003901 0.38813099 -0.0137052
-0.26285201 0.38813099 -0.00174779
-0.228477 0.38813099 -0.00131148
0.20121101 0.23344401 -0.0026443601
0.35589799 0.164694 -0.0145986
-0.31441399 -0.181431 0.00141507
-0.31687 -0.179056 0.00141507
-0.28003901 -0.21093 0.00141507
-0.27638 -0.213431 0.00141507
-0.14253899 -0.39164701 0.00141507
-0.112484 -0.385306 0.00141507
-0.073789001 -0.39031699 0.00141507
-0.095866203 -0.385306 0.00141507
-0.108164 -0.38497999 0.00141507
-0.039414 -0.39252901 0.00141507
-0.022126401 -0.385306 0.00141507
-0.0050390102 -0.37441501 0.00141507
0.029336 -0.36605 0.00141507
0.063711002 -0.36607999 0.00141507
-0.34878901 -0.14479899 0.00141507
-0.34887999 -0.14468101 0.00141507
-0.370987 -0.110306 0.00141507
-0.38316399 -0.083958097 0.00141507
0.20121101 -0.39447799 0.00141507
0.172556 -0.385306 0.00141507
0.098085999 -0.36500499 0.00141507
0.132461 -0.36539301 0.00141507
0.16683599 -0.38095599 0.00141507
0.235586 -0.39361301 0.00141507
0.269961 -0.38607901 0.00141507
0.30433601 -0.38537401 0.00141507
0.33871099 -0.38929999 0.00141507
0.37308601 -0.38589799 0.00141507
0.37552601 -0.385306 0.00141507
0.40746099 -0.37416101 0.00141507
0.441836 -0.35791901 0.00141507
0.45591 -0.35093099 0.00141507
0.47621101 -0.339347 0.00141507
0.50833899 -0.31655601 0.00141507
0.51058602 -0.31453899 0.00141507
0.53853399 -0.28218099 0.00141507
0.54496098 -0.269867 0.00141507
0.46994501 -0.110306 0.00141507
0.441836 0.0506914 0.00141507
0.436737 0.061569002 0.00141507
0.415739 0.095944002 0.00141507
-0.39949501 0.26781899 0.00141507
-0.391114 0.302194 0.00141507
-0.39054799 0.33656901 0.00141507
-0.38316399 0.358473 0.00141507
-0.36729601 0.37094399 0.00141507
-0.0050390102 0.196946 0.00141507
-0.0298361 0.19906899 0.00141507
-0.039414 0.20215 0.00141507
0.0104283 0.19906899 0.00141507
0.029336 0.20379899 0.00141507
0.063711002 0.213081 0.00141507
-0.34878901 0.37813801 0.00141507
0.098085999 0.22137 0.00141507
0.132461 0.227694 0.00141507
0.16683599 0.232135 0.00141507
0.185886 0.23344401 0.00141507
0.40746099 0.107582 0.00141507
0.39063701 0.130319 0.00141507
-0.31441399 -0.179056 -0.015967799
-0.108164 -0.385306 0.00071763998
-0.039414 -0.385306 -0.025736701
-0.34878901 -0.14468101 -0.0049515399
-0.38316399 0.095944002 -0.013465
0.37308601 -0.385306 -0.0050669299
0.54496098 -0.247806 -0.028884901
-0.417539 0.164694 -0.0090423198
-0.417539 0.19906899 -0.0054137702
-0.38316399 0.302194 -0.0127099
-0.38316399 0.33656901 -0.0075122099
-0.34878901 0.37094399 -0.023704899
-0.108164 0.37094399 -0.0128875
-0.17691401 0.40531901 -0.00143361
-0.14253899 0.40531901 -0.00178838
-0.14253899 0.43969399 -0.0249182
-0.108164 0.40531901 -0.017042
-0.108164 0.43969399 -0.025908099
-0.255274 -0.219602 -0.015772499
-0.19696601 -0.396568 -0.0129079
-0.383912 -0.077937797 -0.0101746
-0.384653 0.080173999 -0.00392312
-0.38004401 0.075319 -0.022178199
0.55272102 -0.229808 -0.0151903
0.47230899 -0.130852 -0.016766701
0.46606299 -0.0558789 -0.0129079
0.446922 0.035566099 -0.015772499
-0.419404 0.153427 -0.0011993099
-0.41999999 0.181881 -0.0020421101
-0.418502 0.208959 -0.00029212001
-0.060038999 0.207321 -0.015772499
-0.120454 0.34735799 -0.0125833
-0.33031699 0.379114 -0.0170945
-0.1969 0.39777899 -0.0112687
-0.15972701 0.40355399 0.00020467999
-0.127083 0.39006901 -0.0045787701
0.187199 0.23144799 -0.0135844
0.37841499 0.14242999 -0.0177982
-0.26285201 -0.391372 0.0186026
-0.27141401 -0.385306 0.0186026
-0.245664 -0.39414901 0.0186026
-0.228477 -0.39515001 0.0186026
-0.211289 -0.39563599 0.0186026
-0.26882201 -0.368119 0.0186026
-0.26285201 -0.358199 0.0186026
-0.25833899 -0.35093099 0.0186026
-0.245664 -0.337455 0.0186026
-0.240455 -0.33374399 0.0186026
-0.228477 -0.32755399 0.0186026
-0.211289 -0.32025 0.0186026
-0.194102 -0.39635199 0.0186026
-0.17691401 -0.395953 0.0186026
-0.202131 -0.31655601 0.0186026
-0.194102 -0.31263301 0.0186026
-0.178808 -0.29936901 0.0186026
-0.17691401 -0.29673401 0.0186026
-0.170407 -0.28218099 0.0186026
-0.17691401 -0.25153199 0.0186026
-0.182946 -0.247806 0.0186026
-0.168275 -0.264994 0.0186026
-0.194102 -0.242771 0.0186026
-0.211289 -0.238124 0.0186026
-0.38544601 -0.075930998 0.0186026
-0.392364 -0.058743499 0.0186026
-0.400352 -0.044443 0.0186026
-0.40115401 -0.041556001 0.0186026
-0.40273899 -0.0243685 0.0186026
-0.40148601 -0.00718102 0.0186026
-0.40224999 0.0100065 0.0186026
-0.401476 0.027194001 0.0186026
-0.400352 0.031671599 0.0186026
-0.39745599 0.044381499 0.0186026
-0.39189899 0.061569002 0.0186026
-0.38508099 0.078756496 0.0186026
-0.39000699 0.095944002 0.0186026
0.55563802 -0.247806 0.0186026
0.56145501 -0.230619 0.0186026
0.56214797 -0.22757301 0.0186026
0.56362599 -0.213431 0.0186026
0.56308299 -0.196244 0.0186026
0.56214797 -0.188462 0.0186026
0.56030202 -0.179056 0.0186026
0.46803799 -0.075930998 0.0186026
0.46647501 -0.058743499 0.0186026
0.46514899 -0.041556001 0.0186026
0.54496098 -0.152408 0.0186026
0.53276998 -0.14468101 0.0186026
0.55320102 -0.161869 0.0186026
0.463595 -0.0243685 0.0186026
0.46054199 -0.00718102 0.0186026
0.459023 -0.00090167002 0.0186026
0.456294 0.0100065 0.0186026
0.45073 0.027194001 0.0186026
-0.41987899 0.130319 0.0186026
-0.42574 0.147506 0.0186026
-0.42780599 0.164694 0.0186026
-0.42811301 0.181881 0.0186026
-0.42629701 0.19906899 0.0186026
-0.42383799 0.21625599 0.0186026
-0.418704 0.23344401 0.0186026
-0.148802 0.33656901 0.0186026
-0.148443 0.35375601 0.0186026
-0.15508699 0.37094399 0.0186026
-0.228477 0.389781 0.0186026
-0.245664 0.38990399 0.0186026
-0.211289 0.38965899 0.0186026
-0.17691401 0.38772699 0.0186026
-0.178404 0.38813099 0.0186026
-0.194102 0.38957 0.0186026
-0.15972701 0.376854 0.0186026
0.25277299 0.225409 0.0186026
0.235586 0.23047499 0.0186026
0.269961 0.21904901 0.0186026
0.33871099 0.18130501 0.0186026
0.33793399 0.181881 0.0186026
0.32152301 0.193 0.0186026
0.31143799 0.19906899 0.0186026
0.287148 0.211547 0.0186026
0.27666801 0.21625599 0.0186026
0.30433601 0.202874 0.0186026
-0.28003901 -0.385306 0.0073921098
-0.28003901 -0.368119 0.00582588
-0.26285201 -0.35093099 0.0121949
-0.245664 -0.33374399 0.0142863
-0.211289 -0.31655601 0.0114926
-0.17691401 -0.28218099 0.0120146
-0.17691401 -0.264994 0.0087931203
-0.400352 -0.041556001 0.00446063
-0.400352 -0.0243685 0.0047473898
-0.400352 -0.00718102 0.0123771
-0.400352 0.0100065 0.00269258
-0.400352 0.027194001 0.0091111101
-0.38316399 0.078756496 0.0084686903
0.56214797 -0.213431 0.00305665
0.56214797 -0.196244 0.0089710997
0.52777302 -0.14468101 0.0076150899
-0.417539 0.130319 0.0099910498
-0.417539 0.23344401 0.0125704
-0.14253899 0.33656901 0.0094492398
-0.14253899 0.35375601 0.0131475
-0.14253899 0.37094399 0.0110704
-0.245664 0.38813099 0.0042125001
-0.17691401 0.38813099 0.018059
-0.15972701 0.38813099 0.0122937
-0.14253899 0.38813099 0.0065128198
-0.245664 -0.391514 0.03579
-0.25589499 -0.385306 0.03579
-0.228477 -0.39442599 0.03579
-0.211289 -0.39538601 0.03579
-0.25593799 -0.368119 0.03579
-0.245664 -0.35453099 0.03579
-0.24193899 -0.35093099 0.03579
-0.228477 -0.34109801 0.03579
-0.214807 -0.33374399 0.03579
-0.211289 -0.33194599 0.03579
-0.194102 -0.396191 0.03579
-0.17691401 -0.396961 0.03579
-0.194102 -0.32385501 0.03579
-0.179231 -0.31655601 0.03579
-0.17691401 -0.315249 0.03579
-0.16243599 -0.29936901 0.03579
-0.15972701 -0.293816 0.03579
-0.156067 -0.28218099 0.03579
-0.1573 -0.264994 0.03579
-0.15972701 -0.25963899 0.03579
-0.17673101 -0.247806 0.03579
-0.194102 -0.24239001 0.03579
-0.211289 -0.237776 0.03579
-0.17691401 -0.24775399 0.03579
-0.38534501 -0.075930998 0.03579
-0.39118201 -0.058743499 0.03579
-0.400352 -0.042626299 0.03579
-0.400756 -0.041556001 0.03579
-0.40424299 -0.0243685 0.03579
-0.40331301 -0.00718102 0.03579
-0.40334499 0.0100065 0.03579
-0.40275401 0.027194001 0.03579
-0.400352 0.036873199 0.03579
-0.39863801 0.044381499 0.03579
-0.39270499 0.061569002 0.03579
-0.38593 0.078756496 0.03579
-0.390163 0.095944002 0.03579
0.55558199 -0.247806 0.03579
0.56058502 -0.230619 0.03579
0.56214797 -0.220406 0.03579
0.56276 -0.213431 0.03579
0.56309301 -0.196244 0.03579
0.56214797 -0.18517999 0.03579
0.56086898 -0.179056 0.03579
0.46702299 -0.075930998 0.03579
0.465157 -0.058743499 0.03579
0.463844 -0.041556001 0.03579
0.54496098 -0.15184601 0.03579
0.53457898 -0.14468101 0.03579
0.55352002 -0.161869 0.03579
0.46212399 -0.0243685 0.03579
0.45933101 -0.00718102 0.03579
0.459023 -0.0057818 0.03579
0.45490101 0.0100065 0.03579
0.44901901 0.027194001 0.03579
-0.422923 0.130319 0.03579
-0.42894399 0.147506 0.03579
-0.43174401 0.164694 0.03579
-0.43139699 0.181881 0.03579
-0.429645 0.19906899 0.03579
-0.42673299 0.21625599 0.03579
-0.420746 0.23344401 0.03579
-0.156893 0.33656901 0.03579
-0.159419 0.35375601 0.03579
-0.15972701 0.35455301 0.03579
-0.168975 0.37094399 0.03579
-0.228477 0.390517 0.03579
-0.245664 0.39124101 0.03579
-0.211289 0.38918099 0.03579
-0.194102 0.38611999 0.03579
-0.203382 0.38813099 0.03579
-0.17691401 0.378501 0.03579
0.25277299 0.225012 0.03579
0.235586 0.230321 0.03579
0.269961 0.218394 0.03579
0.33871099 0.180907 0.03579
0.337419 0.181881 0.03579
0.32152301 0.192809 0.03579
0.311234 0.19906899 0.03579
0.287148 0.21124201 0.03579
0.27525699 0.21625599 0.03579
0.30433601 0.202792 0.03579
-0.34878901 -0.142635 0.03579
-0.357822 -0.12749401 0.03579
-0.36597699 -0.117364 0.03579
-0.372832 -0.110306 0.03579
-0.38316399 -0.091206998 0.03579
-0.38259301 -0.093118504 0.03579
-0.347554 -0.14468101 0.03579
0.49339801 -0.13956399 0.03579
0.47621101 -0.13141599 0.03579
0.51058602 -0.139313 0.03579
0.52777302 -0.141709 0.03579
-0.400352 0.104972 0.03579
-0.410252 0.113131 0.03579
-0.417539 0.121117 0.03579
0.218399 0.233273 0.03579
0.216874 0.23344401 0.03579
0.20121101 0.234258 0.03579
0.37308601 0.15042301 0.03579
0.35821301 0.164694 0.03579
0.35589799 0.166739 0.03579
-0.26285201 -0.385306 0.0285028
-0.26285201 -0.368119 0.0273013
-0.245664 -0.35093099 0.032940298
-0.228477 -0.33374399 0.0268657
-0.194102 -0.31655601 0.0249904
-0.17691401 -0.29936901 0.020400001
-0.15972701 -0.28218099 0.029593799
-0.17691401 -0.247806 0.035158299
-0.15972701 -0.264994 0.0295655
-0.15972701 0.37094399 0.0223743
-0.194102 0.38813099 0.0242106
-0.31441399 -0.181242 0.03579
-0.31682 -0.179056 0.03579
-0.28003901 -0.21163499 0.03579
-0.245664 -0.22772101 0.03579
-0.27746001 -0.213431 0.03579
-0.14253899 -0.39537099 0.03579
-0.108164 -0.38661501 0.03579
-0.073789001 -0.38569 0.03579
-0.039414 -0.39397499 0.03579
-0.0111583 -0.385306 0.03579
-0.0050390102 -0.379778 0.03579
0.029336 -0.366393 0.03579
0.063711002 -0.36653599 0.03579
0.20121101 -0.394243 0.03579
0.172957 -0.385306 0.03579
0.098085999 -0.365484 0.03579
0.132461 -0.36592799 0.03579
0.16683599 -0.38081601 0.03579
0.235586 -0.39775199 0.03579
0.269961 -0.39343899 0.03579
0.29872999 -0.385306 0.03579
0.33871099 -0.387575 0.03579
0.321805 -0.385306 0.03579
0.30433601 -0.38484499 0.03579
0.37111199 -0.385306 0.03579
0.37308601 -0.384745 0.03579
0.40746099 -0.37256801 0.03579
0.441836 -0.35713699 0.03579
0.45495099 -0.35093099 0.03579
0.47621101 -0.33940801 0.03579
0.51058602 -0.31658101 0.03579
0.51061398 -0.31655601 0.03579
0.54132903 -0.28218099 0.03579
0.54496098 -0.27573299 0.03579
0.469221 -0.110306 0.03579
0.441836 0.045256998 0.03579
0.43458501 0.061569002 0.03579
0.41508201 0.095944002 0.03579
-0.417539 0.240761 0.03579
-0.408636 0.26781899 0.03579
-0.40915099 0.302194 0.03579
-0.41009101 0.33656901 0.03579
-0.385461 0.37094399 0.03579
-0.108164 0.220456 0.03579
-0.12019 0.23344401 0.03579
-0.073789001 0.20829301 0.03579
-0.0050390102 0.19599099 0.03579
-0.0331733 0.19906899 0.03579
-0.039414 0.20097999 0.03579
0.0156114 0.19906899 0.03579
0.029336 0.203089 0.03579
0.063711002 0.213493 0.03579
-0.14253899 0.27766901 0.03579
-0.151216 0.302194 0.03579
-0.138367 0.26781899 0.03579
-0.38316399 0.371977 0.03579
-0.34878901 0.38289201 0.03579
-0.31441399 0.39013201 0.03579
-0.28003901 0.39197499 0.03579
0.098085999 0.222204 0.03579
0.132461 0.22825301 0.03579
0.16683599 0.23251601 0.03579
0.177699 0.23344401 0.03579
0.40746099 0.107056 0.03579
0.39028499 0.130319 0.03579
-0.108164 -0.385306 0.033401299
-0.34878901 -0.14468101 0.00693744
0.30433601 -0.385306 0.0092824101
0.37308601 -0.385306 0.0314117
0.51058602 -0.31655601 0.017567899
-0.38316399 0.37094399 0.0300602
-0.226667 -0.23277099 0.0136918
-0.163164 -0.39521301 0.0186026
-0.35915399 -0.12820999 0.021846799
-0.38440499 -0.080591597 0.0186026
-0.378548 -0.097779103 0.022040101
0.55091703 -0.25780401 0.0186026
0.46854001 -0.089681 0.0186026
0.49339801 -0.138465 0.0186026
0.52389002 -0.143286 0.019488299
0.446971 0.035506099 0.0186026
-0.41947001 0.12801801 0.0250434
-0.40336001 0.110961 0.021823
-0.418632 0.235273 0.0256883
-0.091376297 0.215918 0.0128734
-0.145098 0.289507 0.015165
-0.129391 0.248739 0.0128734
-0.147276 0.32210201 0.0148396
-0.298706 0.38920701 0.0128734
-0.257824 0.38935399 0.012507
0.22441299 0.23190901 0.0186026
0.34915501 0.172159 0.0186026
-0.228477 -0.39239201 0.052977599
-0.23894399 -0.385306 0.052977599
-0.211289 -0.394871 0.052977599
-0.23582301 -0.368119 0.052977599
-0.228477 -0.359469 0.052977599
-0.219924 -0.35093099 0.052977599
-0.211289 -0.34482899 0.052977599
-0.194102 -0.39565599 0.052977599
-0.17691401 -0.39769301 0.052977599
-0.194102 -0.33538601 0.052977599
-0.190813 -0.33374399 0.052977599
-0.17691401 -0.32649001 0.052977599
-0.34878901 -0.13813899 0.052977599
-0.35533401 -0.12749401 0.052977599
-0.36597699 -0.116502 0.052977599
-0.372172 -0.110306 0.052977599
-0.38316399 -0.0853801 0.052977599
-0.384229 -0.075930998 0.052977599
-0.38126799 -0.093118504 0.052977599
-0.39076 -0.058743499 0.052977599
-0.400352 -0.041926 0.052977599
-0.40049699 -0.041556001 0.052977599
-0.34518501 -0.14468101 0.052977599
-0.40414801 -0.0243685 0.052977599
-0.40322101 -0.00718102 0.052977599
-0.40260899 0.0100065 0.052977599
-0.402172 0.027194001 0.052977599
-0.400352 0.036171202 0.052977599
-0.39799601 0.044381499 0.052977599
-0.39063299 0.061569002 0.052977599
-0.38435501 0.078756496 0.052977599
-0.388973 0.095944002 0.052977599
0.553927 -0.247806 0.052977599
0.55831599 -0.230619 0.052977599
0.56048602 -0.213431 0.052977599
0.56106699 -0.196244 0.052977599
0.558451 -0.179056 0.052977599
0.46591699 -0.075930998 0.052977599
0.46408901 -0.058743499 0.052977599
0.46255699 -0.041556001 0.052977599
0.54496098 -0.155543 0.052977599
0.52917701 -0.14468101 0.052977599
0.49339801 -0.142094 0.052977599
0.47621101 -0.13810199 0.052977599
0.51058602 -0.1398 0.052977599
0.52777302 -0.143985 0.052977599
0.550165 -0.161869 0.052977599
0.46048701 -0.0243685 0.052977599
0.459023 -0.0143558 0.052977599
0.45770699 -0.00718102 0.052977599
-0.42403999 0.130319 0.052977599
-0.43068999 0.147506 0.052977599
-0.434145 0.164694 0.052977599
-0.400352 0.106365 0.052977599
-0.41041899 0.113131 0.052977599
-0.417539 0.119964 0.052977599
-0.43453899 0.181881 0.052977599
-0.43262601 0.19906899 0.052977599
-0.428978 0.21625599 0.052977599
-0.42224899 0.23344401 0.052977599
-0.161798 0.33656901 0.052977599
-0.16382299 0.35375601 0.052977599
-0.17304701 0.37094399 0.052977599
-0.228477 0.39075401 0.052977599
-0.245664 0.391828 0.052977599
-0.211289 0.38898799 0.052977599
-0.194102 0.38478401 0.052977599
-0.20602299 0.38813099 0.052977599
-0.17691401 0.37495399 0.052977599
0.218399 0.23208299 0.052977599
0.20121101 0.23305801 0.052977599
0.235586 0.22926 0.052977599
0.25277299 0.224381 0.052977599
0.269961 0.21778101 0.052977599
0.33871099 0.179915 0.052977599
0.33627301 0.181881 0.052977599
0.32152301 0.192083 0.052977599
0.30989799 0.19906899 0.052977599
0.287148 0.210379 0.052977599
0.27363399 0.21625599 0.052977599
0.30433601 0.20203499 0.052977599
0.37308601 0.149519 0.052977599
0.35695201 0.164694 0.052977599
0.35589799 0.165649 0.052977599
-0.245664 -0.385306 0.045807201
-0.245664 -0.368119 0.044754099
-0.228477 -0.35093099 0.0457456
-0.211289 -0.33374399 0.0382016
-0.194102 -0.33374399 0.050824899
-0.17691401 -0.31655601 0.037419099
0.56214797 -0.213431 0.042502701
0.56214797 -0.196244 0.0466915
0.459023 -0.00718102 0.039504699
-0.15972701 0.33656901 0.044604301
-0.15972701 0.35375601 0.0366669
0.20121101 0.23344401 0.048854802
-0.211289 -0.39436799 0.070165001
-0.22798 -0.385306 0.070165001
-0.220587 -0.368119 0.070165001
-0.211289 -0.35624501 0.070165001
-0.194102 -0.39488599 0.070165001
-0.17691401 -0.39695299 0.070165001
-0.206747 -0.35093099 0.070165001
-0.194102 -0.34157401 0.070165001
-0.181903 -0.33374399 0.070165001
-0.17691401 -0.32958099 0.070165001
-0.34878901 -0.13175599 0.070165001
-0.35223201 -0.12749401 0.070165001
-0.36597699 -0.11176 0.070165001
-0.36712801 -0.110306 0.070165001
-0.37583399 -0.093118504 0.070165001
-0.38151699 -0.075930998 0.070165001
-0.38316399 -0.071309 0.070165001
-0.38977501 -0.058743499 0.070165001
-0.398599 -0.041556001 0.070165001
-0.34042501 -0.14468101 0.070165001
-0.400352 -0.035845902 0.070165001
-0.40245301 -0.0243685 0.070165001
-0.40220699 -0.00718102 0.070165001
-0.400543 0.0100065 0.070165001
-0.400352 0.0133799 0.070165001
-0.398987 0.027194001 0.070165001
-0.39431399 0.044381499 0.070165001
-0.386105 0.061569002 0.070165001
-0.38316399 0.067448899 0.070165001
-0.38316399 0.093184203 0.070165001
-0.38494301 0.095944002 0.070165001
-0.38 0.078756496 0.070165001
0.55076301 -0.247806 0.070165001
0.55448401 -0.230619 0.070165001
0.55591202 -0.213431 0.070165001
0.556054 -0.196244 0.070165001
0.55299699 -0.179056 0.070165001
0.464351 -0.075930998 0.070165001
0.46284601 -0.058743499 0.070165001
0.46103999 -0.041556001 0.070165001
0.49339801 -0.14677399 0.070165001
0.47621101 -0.148664 0.070165001
0.51058602 -0.145016 0.070165001
0.54496098 -0.16412701 0.070165001
0.543212 -0.161869 0.070165001
0.52777302 -0.149872 0.070165001
0.459023 -0.026564799 0.070165001
0.45870101 -0.0243685 0.070165001
0.45565701 -0.00718102 0.070165001
-0.42190599 0.130319 0.070165001
-0.43035999 0.147506 0.070165001
-0.43468201 0.164694 0.070165001
-0.400352 0.110236 0.070165001
-0.40472499 0.113131 0.070165001
-0.417539 0.124585 0.070165001
-0.43472701 0.164931 0.070165001
-0.43608499 0.181881 0.070165001
-0.43472701 0.197412 0.070165001
-0.43441001 0.19906899 0.070165001
-0.43030301 0.21625599 0.070165001
-0.42358801 0.23344401 0.070165001
-0.16552 0.33656901 0.070165001
-0.166926 0.35375601 0.070165001
-0.175743 0.37094399 0.070165001
-0.228477 0.39080101 0.070165001
-0.245664 0.39199501 0.070165001
-0.211289 0.38853899 0.070165001
-0.194102 0.38380799 0.070165001
-0.20929 0.38813099 0.070165001
-0.17691401 0.37237799 0.070165001
0.218399 0.229532 0.070165001
0.20121101 0.230551 0.070165001
0.235586 0.22685701 0.070165001
0.269961 0.215702 0.070165001
0.26875299 0.21625599 0.070165001
0.25277299 0.222305 0.070165001
0.33871099 0.177902 0.070165001
0.33396801 0.181881 0.070165001
0.32152301 0.190754 0.070165001
0.306564 0.19906899 0.070165001
0.287148 0.207381 0.070165001
0.30433601 0.20002399 0.070165001
0.35589799 0.163877 0.070165001
0.35495999 0.164694 0.070165001
0.37308601 0.148021 0.070165001
-0.28003901 -0.204548 0.070165001
-0.289644 -0.196244 0.070165001
-0.297227 -0.188444 0.070165001
-0.307266 -0.179056 0.070165001
-0.26285201 -0.214013 0.070165001
-0.26420301 -0.213431 0.070165001
-0.245664 -0.22023299 0.070165001
-0.228477 -0.22561499 0.070165001
-0.211289 -0.23051199 0.070165001
-0.155022 -0.28218099 0.070165001
-0.15602501 -0.264994 0.070165001
-0.15972701 -0.25491899 0.070165001
-0.16545901 -0.247806 0.070165001
-0.194102 -0.236669 0.070165001
-0.210969 -0.230619 0.070165001
-0.17691401 -0.241814 0.070165001
-0.31441399 -0.173096 0.070165001
0.470974 -0.14468101 0.070165001
-0.417539 0.24430899 0.070165001
-0.41426399 0.25063199 0.070165001
-0.41085601 0.26781899 0.070165001
-0.41312301 0.28500599 0.070165001
-0.415676 0.302194 0.070165001
-0.417101 0.319381 0.070165001
-0.41502699 0.33656901 0.070165001
-0.228477 -0.385306 0.069178
-0.228477 -0.368119 0.060926601
-0.211289 -0.35093099 0.0609533
-0.38316399 -0.075930998 0.061955102
-0.400352 -0.041556001 0.057494599
-0.400352 0.027194001 0.064136997
-0.38316399 0.078756496 0.060013101
0.47621101 -0.14468101 0.065758698
0.49339801 -0.14468101 0.063291498
0.51058602 -0.14468101 0.069389403
0.54496098 -0.161869 0.066696398
0.52777302 -0.14468101 0.055600699
0.459023 -0.0243685 0.067501098
-0.43472701 0.181881 0.054036099
0.269961 0.21625599 0.0673379
0.35589799 0.164694 0.062685803
-0.14253899 -0.40400699 0.070165001
-0.108164 -0.399652 0.070165001
-0.073789001 -0.39103001 0.070165001
-0.165535 -0.31655601 0.070165001
-0.039414 -0.39145601 0.070165001
-0.0200253 -0.385306 0.070165001
-0.0050390102 -0.37491199 0.070165001
0.029336 -0.366855 0.070165001
0.063711002 -0.36639401 0.070165001
0.20121101 -0.38817501 0.070165001
0.191589 -0.385306 0.070165001
0.098085999 -0.365585 0.070165001
0.132461 -0.364494 0.070165001
0.16683599 -0.372632 0.070165001
0.235586 -0.39270899 0.070165001
0.269961 -0.390304 0.070165001
0.30433601 -0.38754201 0.070165001
0.33506799 -0.385306 0.070165001
0.33871099 -0.38468701 0.070165001
0.37308601 -0.376755 0.070165001
0.40746099 -0.365181 0.070165001
0.441836 -0.35151201 0.070165001
0.44306999 -0.35093099 0.070165001
0.47621101 -0.333336 0.070165001
0.50178498 -0.31655601 0.070165001
0.51058602 -0.30884099 0.070165001
0.53465199 -0.28218099 0.070165001
0.54496098 -0.264011 0.070165001
0.46531999 -0.110306 0.070165001
0.44444901 0.027194001 0.070165001
0.441836 0.0334072 0.070165001
0.42980999 0.061569002 0.070165001
0.41216901 0.095944002 0.070165001
-0.38663399 0.37094399 0.070165001
-0.073789001 0.197395 0.070165001
-0.0936848 0.19906899 0.070165001
-0.108164 0.206585 0.070165001
-0.12552799 0.23344401 0.070165001
-0.039414 0.192535 0.070165001
-0.0050390102 0.18693399 0.070165001
0.029336 0.195529 0.070165001
0.037907898 0.19906899 0.070165001
0.063711002 0.208707 0.070165001
-0.14253899 0.26388901 0.070165001
-0.14499301 0.26781899 0.070165001
-0.161322 0.302194 0.070165001
-0.38316399 0.37246501 0.070165001
-0.34878901 0.38305399 0.070165001
-0.31441399 0.39037299 0.070165001
-0.28003901 0.39275301 0.070165001
0.098085999 0.219134 0.070165001
0.132461 0.225649 0.070165001
0.16683599 0.22933701 0.070165001
0.40746099 0.103278 0.070165001
0.38810301 0.130319 0.070165001
-0.31441399 -0.179056 0.051363401
0.30433601 -0.385306 0.0508979
0.33871099 -0.385306 0.0661138
0.51058602 -0.31655601 0.036208101
-0.073789001 0.19906899 0.065982498
-0.039414 0.19906899 0.0487004
0.029336 0.19906899 0.058522999
-0.14253899 0.26781899 0.061412401
-0.29757801 -0.191461 0.0576577
-0.25916901 -0.217766 0.0564151
-0.228477 -0.22837099 0.0564151
-0.163164 -0.398197 0.052977599
-0.174069 -0.32229599 0.057681698
-0.16465899 -0.30084401 0.045844302
-0.16075701 -0.26306501 0.052977599
-0.196511 -0.23821899 0.055433001
-0.32980201 -0.16087499 0.0527086
0.32382801 -0.38512599 0.054820299
0.55003899 -0.256632 0.052977599
0.47235799 -0.129915 0.055107798
0.46636599 -0.089681 0.052977599
0.454889 0.0037360799 0.046996601
-0.420248 0.126104 0.052977599
-0.42033201 0.23707999 0.052977599
-0.41376701 0.25426799 0.0564151
-0.411488 0.28500599 0.0564151
-0.41340899 0.319381 0.0564151
-0.15941299 0.325111 0.051582001
-0.25941399 0.39195901 0.052977599
0.18583401 0.232058 0.052290399
0.379529 0.14172 0.052977599
-0.228477 -0.389467 0.087352604
-0.232646 -0.385306 0.087352604
-0.211289 -0.39341399 0.087352604
-0.228477 -0.37035 0.087352604
-0.22589201 -0.368119 0.087352604
-0.215694 -0.35093099 0.087352604
-0.211289 -0.344771 0.087352604
-0.297227 -0.181153 0.087352604
-0.299721 -0.179056 0.087352604
-0.28003901 -0.19580001 0.087352604
-0.245664 -0.213964 0.087352604
-0.247324 -0.213431 0.087352604
-0.228477 -0.219276 0.087352604
-0.211289 -0.22370701 0.087352604
-0.26285201 -0.20699 0.087352604
-0.27952099 -0.196244 0.087352604
-0.194102 -0.39412901 0.087352604
-0.17691401 -0.39550099 0.087352604
-0.195896 -0.33374399 0.087352604
-0.194102 -0.33258599 0.087352604
-0.17691401 -0.32008201 0.087352604
-0.160281 -0.28218099 0.087352604
-0.159896 -0.264994 0.087352604
-0.16360299 -0.247806 0.087352604
-0.17691401 -0.23469201 0.087352604
-0.188177 -0.230619 0.087352604
-0.194102 -0.228606 0.087352604
-0.34878901 -0.126698 0.087352604
-0.360082 -0.110306 0.087352604
-0.36597699 -0.100405 0.087352604
-0.36906299 -0.093118504 0.087352604
-0.37596101 -0.075930998 0.087352604
-0.38316399 -0.063282304 0.087352604
-0.38573101 -0.058743499 0.087352604
-0.39331499 -0.041556001 0.087352604
-0.31441399 -0.167375 0.087352604
-0.33569199 -0.14468101 0.087352604
-0.34814599 -0.12749401 0.087352604
-0.397479 -0.0243685 0.087352604
-0.398294 -0.00718102 0.087352604
-0.39671901 0.0100065 0.087352604
-0.39379001 0.027194001 0.087352604
-0.38854599 0.044381499 0.087352604
-0.38316399 0.056275599 0.087352604
-0.380238 0.061569002 0.087352604
-0.37412101 0.078756496 0.087352604
-0.37736699 0.095944002 0.087352604
0.54392099 -0.247806 0.087352604
0.54496098 -0.24440099 0.087352604
0.54496098 -0.181629 0.087352604
0.54378098 -0.179056 0.087352604
0.54938197 -0.213431 0.087352604
0.54852498 -0.196244 0.087352604
0.47621101 -0.15885399 0.087352604
0.461353 -0.14468101 0.087352604
0.46130699 -0.075930998 0.087352604
0.460116 -0.058743499 0.087352604
0.459023 -0.0495224 0.087352604
0.45779601 -0.041556001 0.087352604
0.49339801 -0.154679 0.087352604
0.51058602 -0.154099 0.087352604
0.52882802 -0.161869 0.087352604
0.52777302 -0.16104101 0.087352604
0.45540899 -0.0243685 0.087352604
0.452411 -0.00718102 0.087352604
-0.417539 0.130859 0.087352604
-0.42844501 0.147506 0.087352604
-0.43389499 0.164694 0.087352604
-0.38316399 0.103255 0.087352604
-0.39608201 0.113131 0.087352604
-0.400352 0.115989 0.087352604
-0.41703901 0.130319 0.087352604
-0.43472701 0.16926999 0.087352604
-0.435341 0.181881 0.087352604
-0.43472701 0.191109 0.087352604
-0.43366101 0.19906899 0.087352604
-0.42941099 0.21625599 0.087352604
-0.42254099 0.23344401 0.087352604
-0.417539 0.242273 0.087352604
-0.41195601 0.25063199 0.087352604
-0.40684801 0.26781899 0.087352604
-0.40865999 0.28500599 0.087352604
-0.41280001 0.302194 0.087352604
-0.41642499 0.319381 0.087352604
-0.41396099 0.33656901 0.087352604
-0.17691401 0.36923 0.087352604
-0.17827401 0.37094399 0.087352604
-0.169287 0.33656901 0.087352604
-0.169919 0.35375601 0.087352604
-0.211289 0.38703299 0.087352604
-0.21656799 0.38813099 0.087352604
-0.228477 0.38996199 0.087352604
-0.245664 0.39140299 0.087352604
-0.194102 0.382137 0.087352604
0.218399 0.225778 0.087352604
0.20121101 0.22666 0.087352604
0.235586 0.22312699 0.087352604
0.269961 0.211669 0.087352604
0.259002 0.21625599 0.087352604
0.25277299 0.218382 0.087352604
0.30433601 0.19595 0.087352604
0.29553801 0.19906899 0.087352604
0.33871099 0.174385 0.087352604
0.32945099 0.181881 0.087352604
0.32152301 0.18757799 0.087352604
0.287148 0.202792 0.087352604
0.37308601 0.144943 0.087352604
0.37068999 0.147506 0.087352604
0.35589799 0.16124199 0.087352604
0.35155401 0.164694 0.087352604
-0.228477 -0.385306 0.082848497
-0.211289 -0.35093099 0.082824998
-0.28003901 -0.196244 0.086699098
-0.26285201 -0.213431 0.071905002
-0.194102 -0.33374399 0.085919604
-0.15972701 -0.28218099 0.085516803
-0.15972701 -0.264994 0.086750001
-0.194102 -0.230619 0.0840379
-0.34878901 -0.12749401 0.085164502
-0.36597699 -0.110306 0.072908603
-0.400352 -0.0243685 0.079313397
-0.400352 -0.00718102 0.081223801
-0.400352 0.0100065 0.071623303
-0.38316399 0.061569002 0.078780398
-0.38316399 0.095944002 0.073577099
0.54496098 -0.247806 0.085720398
0.54496098 -0.179056 0.0855956
0.459023 -0.041556001 0.082527503
-0.417539 0.130319 0.085905798
-0.400352 0.113131 0.079607703
-0.17691401 0.37094399 0.077344701
-0.211289 0.38813099 0.077176601
0.30433601 0.19906899 0.075399198
0.37308601 0.147506 0.074486002
-0.228477 -0.391756 0.10454
-0.240382 -0.385306 0.10454
-0.211289 -0.392979 0.10454
-0.240897 -0.368119 0.10454
-0.230324 -0.35093099 0.10454
-0.228477 -0.34783599 0.10454
-0.21435601 -0.33374399 0.10454
-0.211289 -0.33164099 0.10454
-0.28003901 -0.186335 0.10454
-0.291071 -0.179056 0.10454
-0.211289 -0.21610899 0.10454
-0.221449 -0.213431 0.10454
-0.26285201 -0.19795001 0.10454
-0.26566601 -0.196244 0.10454
-0.245664 -0.205911 0.10454
-0.228477 -0.21153399 0.10454
-0.194102 -0.39339799 0.10454
-0.17691401 -0.39370999 0.10454
-0.194102 -0.32073799 0.10454
-0.187024 -0.31655601 0.10454
-0.16407201 -0.28218099 0.10454
-0.162847 -0.264994 0.10454
-0.16377001 -0.247806 0.10454
-0.194102 -0.22054 0.10454
-0.17691401 -0.226421 0.10454
-0.171069 -0.230619 0.10454
-0.34878901 -0.118589 0.10454
-0.35518 -0.110306 0.10454
-0.36548901 -0.093118504 0.10454
-0.36597699 -0.092058197 0.10454
-0.37168899 -0.075930998 0.10454
-0.38316399 -0.048113901 0.10454
-0.38550499 -0.041556001 0.10454
-0.37839001 -0.058743499 0.10454
-0.297227 -0.175089 0.10454
-0.314408 -0.161869 0.10454
-0.31441399 -0.161863 0.10454
-0.33160201 -0.14316601 0.10454
-0.342134 -0.12749401 0.10454
-0.33047101 -0.14468101 0.10454
-0.389227 -0.0243685 0.10454
-0.39024699 -0.00718102 0.10454
-0.38915399 0.0100065 0.10454
-0.38597101 0.027194001 0.10454
-0.38316399 0.0372301 0.10454
-0.38064599 0.044381499 0.10454
-0.37328899 0.061569002 0.10454
-0.367643 0.078756496 0.10454
-0.37156999 0.095944002 0.10454
0.531569 -0.247806 0.10454
0.535101 -0.230619 0.10454
0.53810197 -0.213431 0.10454
0.53656697 -0.196244 0.10454
0.52777302 -0.179563 0.10454
0.52733898 -0.179056 0.10454
0.459023 -0.17021801 0.10454
0.4549 -0.161869 0.10454
0.47621101 -0.17145 0.10454
0.45416799 -0.14468101 0.10454
0.45575699 -0.075930998 0.10454
0.45477101 -0.058743499 0.10454
0.45202401 -0.041556001 0.10454
0.49339801 -0.16717 0.10454
0.51058602 -0.168898 0.10454
0.44936001 -0.0243685 0.10454
0.44600701 -0.00718102 0.10454
-0.417539 0.137906 0.10454
-0.42341501 0.147506 0.10454
-0.42967099 0.164694 0.10454
-0.38316399 0.108321 0.10454
-0.389018 0.113131 0.10454
-0.400352 0.121765 0.10454
-0.410826 0.130319 0.10454
-0.431508 0.181881 0.10454
-0.43007201 0.19906899 0.10454
-0.42613101 0.21625599 0.10454
-0.41963601 0.23344401 0.10454
-0.417539 0.23767699 0.10454
-0.40904 0.25063199 0.10454
-0.402145 0.26781899 0.10454
-0.40519801 0.28500599 0.10454
-0.41158801 0.302194 0.10454
-0.41397601 0.319381 0.10454
-0.409291 0.33656901 0.10454
-0.17691401 0.36502799 0.10454
-0.18119 0.37094399 0.10454
-0.174366 0.33656901 0.10454
-0.17386401 0.35375601 0.10454
-0.228477 0.38741001 0.10454
-0.233557 0.38813099 0.10454
-0.211289 0.38422099 0.10454
-0.245664 0.38907501 0.10454
-0.194102 0.37980199 0.10454
0.218399 0.220725 0.10454
0.20121101 0.221312 0.10454
0.235586 0.217834 0.10454
0.25277299 0.213195 0.10454
0.242172 0.21625599 0.10454
0.269961 0.206717 0.10454
0.287148 0.197264 0.10454
0.28421 0.19906899 0.10454
0.30433601 0.189573 0.10454
0.32152301 0.181238 0.10454
0.320537 0.181881 0.10454
0.33871099 0.168732 0.10454
0.37308601 0.137518 0.10454
0.36393601 0.147506 0.10454
0.35589799 0.15503401 0.10454
0.34397301 0.164694 0.10454
-0.108164 0.178488 0.10454
-0.119054 0.181881 0.10454
-0.125352 0.19855601 0.10454
-0.12543499 0.19906899 0.10454
-0.17038099 0.302194 0.10454
-0.17331 0.319381 0.10454
-0.228477 -0.368119 0.089050502
-0.228477 -0.35093099 0.102254
-0.211289 -0.33374399 0.101452
-0.297227 -0.179056 0.093227997
-0.245664 -0.213431 0.088570803
-0.228477 -0.213431 0.100104
-0.17691401 -0.31655601 0.092374302
-0.17691401 -0.230619 0.0952994
-0.36597699 -0.093118504 0.099310301
-0.38316399 -0.058743499 0.094228402
-0.31441399 -0.161869 0.104527
-0.33160201 -0.14468101 0.101722
-0.38316399 0.044381499 0.0998713
0.54496098 -0.230619 0.091652296
0.54496098 -0.213431 0.095010899
0.54496098 -0.196244 0.093307301
0.52777302 -0.179056 0.104189
0.459023 -0.161869 0.099248201
0.47621101 -0.161869 0.092900902
0.459023 -0.14468101 0.093691103
0.459023 -0.075930998 0.095663004
0.459023 -0.058743499 0.091755599
0.49339801 -0.161869 0.098474599
0.51058602 -0.161869 0.097492002
0.52777302 -0.161869 0.0883108
-0.43472701 0.181881 0.092184298
-0.228477 0.38813099 0.100605
0.25277299 0.21625599 0.094793104
0.287148 0.19906899 0.099741302
0.32152301 0.181881 0.103204
-0.14253899 -0.39699799 0.10454
-0.108164 -0.396144 0.10454
-0.073789001 -0.39221901 0.10454
-0.039414 -0.38676101 0.10454
-0.036596101 -0.385306 0.10454
-0.0050390102 -0.369991 0.10454
0.029336 -0.366101 0.10454
0.063711002 -0.365345 0.10454
-0.17691401 -0.308934 0.10454
0.098085999 -0.364591 0.10454
0.132461 -0.36367601 0.10454
0.16683599 -0.363666 0.10454
0.20121101 -0.37233299 0.10454
0.235586 -0.38642499 0.10454
0.23077799 -0.385306 0.10454
0.269961 -0.38918301 0.10454
0.30433601 -0.38627601 0.10454
0.309477 -0.385306 0.10454
0.33871099 -0.37570599 0.10454
0.37308601 -0.36298299 0.10454
0.40746099 -0.352157 0.10454
0.411282 -0.35093099 0.10454
0.441836 -0.33791101 0.10454
0.47621101 -0.31786901 0.10454
0.47802001 -0.31655601 0.10454
0.51058602 -0.28596401 0.10454
0.513937 -0.28218099 0.10454
0.455428 -0.110306 0.10454
0.441836 0.0083047701 0.10454
0.43535799 0.027194001 0.10454
0.40746099 0.090141602 0.10454
0.40381601 0.095944002 0.10454
0.42161199 0.061569002 0.10454
-0.38316399 0.364308 0.10454
-0.37040001 0.37094399 0.10454
-0.073789001 0.18138599 0.10454
-0.136425 0.23344401 0.10454
-0.039414 0.174565 0.10454
-0.0050390102 0.171251 0.10454
0.029336 0.18189301 0.10454
0.063711002 0.197147 0.10454
-0.14253899 0.244132 0.10454
-0.157098 0.26781899 0.10454
-0.34878901 0.37838101 0.10454
-0.31441399 0.38614199 0.10454
-0.28003901 0.389579 0.10454
0.068218097 0.19906899 0.10454
0.098085999 0.209627 0.10454
0.132461 0.21762501 0.10454
0.16683599 0.22052599 0.10454
0.37914801 0.130319 0.10454
0.20121101 -0.385306 0.079988502
0.441836 -0.35093099 0.0723501
0.441836 0.027194001 0.084278204
0.40746099 0.095944002 0.094169699
-0.38316399 0.37094399 0.080425903
-0.108164 0.19906899 0.080243103
0.063711002 0.19906899 0.100144
-0.163164 -0.397434 0.087352604
-0.174069 -0.320694 0.080014199
-0.16549499 -0.29582399 0.0878077
-0.32448101 -0.155366 0.091295503
0.535667 -0.26196501 0.087080501
0.54879802 -0.230193 0.082198001
0.46104401 -0.133223 0.088408999
0.46019799 -0.087389298 0.088737696
0.44703299 0.00685832 0.086840197
-0.39853999 0.352651 0.086198099
-0.117234 0.191413 0.099680699
-0.16903099 0.32224599 0.090217203
-0.25941399 0.39096099 0.087352604
0.187461 0.225677 0.087352604
0.37659901 0.139771 0.0852082
-0.28003901 -0.17911801 0.121728
-0.28014299 -0.179056 0.121728
-0.245664 -0.197714 0.121728
-0.248924 -0.196244 0.121728
-0.26285201 -0.18906499 0.121728
-0.228477 -0.20392001 0.121728
-0.211289 -0.20878799 0.121728
-0.16492701 -0.28218099 0.121728
-0.162139 -0.264994 0.121728
-0.162292 -0.247806 0.121728
-0.17691401 -0.21789899 0.121728
-0.192076 -0.213431 0.121728
-0.165327 -0.230619 0.121728
-0.194102 -0.21296 0.121728
-0.34878901 -0.111587 0.121728
-0.350059 -0.110306 0.121728
-0.36168101 -0.093118504 0.121728
-0.36597699 -0.082472198 0.121728
-0.36749801 -0.075930998 0.121728
-0.370395 -0.058743499 0.121728
-0.37430599 -0.041556001 0.121728
-0.31441399 -0.15373001 0.121728
-0.32271099 -0.14468101 0.121728
-0.297227 -0.16802301 0.121728
-0.30515799 -0.161869 0.121728
-0.33160201 -0.13249201 0.121728
-0.33508101 -0.12749401 0.121728
-0.37808099 -0.0243685 0.121728
-0.379444 -0.00718102 0.121728
-0.378304 0.0100065 0.121728
-0.37474301 0.027194001 0.121728
-0.36931899 0.044381499 0.121728
-0.36597699 0.053673401 0.121728
-0.362663 0.061569002 0.121728
-0.35635999 0.078756496 0.121728
-0.362315 0.095944002 0.121728
0.45952901 -0.31655601 0.121728
0.47621101 -0.30360699 0.121728
0.459023 -0.195932 0.121728
0.44296801 -0.179056 0.121728
0.47621101 -0.189004 0.121728
0.51727998 -0.247806 0.121728
0.52157402 -0.230619 0.121728
0.52151197 -0.213431 0.121728
0.49339801 -0.18782499 0.121728
0.51058602 -0.194363 0.121728
0.51288199 -0.196244 0.121728
0.44468001 -0.161869 0.121728
0.44628599 -0.14468101 0.121728
-0.36597699 0.099124297 0.121728
-0.38316399 0.111022 0.121728
-0.415986 0.23344401 0.121728
-0.406369 0.25063199 0.121728
-0.400352 0.264846 0.121728
-0.39989501 0.26781899 0.121728
-0.400352 0.27591801 0.121728
-0.403878 0.28500599 0.121728
-0.408977 0.302194 0.121728
-0.40786201 0.319381 0.121728
-0.40153399 0.33656901 0.121728
-0.125352 0.164579 0.121728
-0.12553599 0.164694 0.121728
-0.108164 0.16365699 0.121728
-0.131597 0.181881 0.121728
-0.132466 0.19906899 0.121728
-0.17691401 0.310774 0.121728
-0.17781 0.319381 0.121728
-0.18050601 0.33656901 0.121728
-0.176149 0.302194 0.121728
-0.18155999 0.35375601 0.121728
-0.187102 0.37094399 0.121728
-0.228477 0.38365501 0.121728
-0.245664 0.38526401 0.121728
-0.211289 0.381035 0.121728
-0.194102 0.37598601 0.121728
0.33871099 0.15919501 0.121728
0.33226299 0.164694 0.121728
0.269961 0.198107 0.121728
0.268466 0.19906899 0.121728
0.218399 0.21230499 0.121728
0.20121101 0.2128 0.121728
0.235586 0.20997401 0.121728
0.25277299 0.205781 0.121728
0.30433601 0.181851 0.121728
0.30425599 0.181881 0.121728
0.287148 0.188142 0.121728
0.32152301 0.172848 0.121728
-0.211289 -0.213431 0.11047
-0.26285201 -0.196244 0.107709
-0.194102 -0.213431 0.120506
-0.38316399 -0.041556001 0.108606
-0.38316399 -0.0243685 0.114678
-0.38316399 -0.00718102 0.116397
-0.38316399 0.0100065 0.114616
-0.38316399 0.027194001 0.109321
-0.36597699 0.061569002 0.117393
-0.36597699 0.078756496 0.10759
-0.36597699 0.095944002 0.116265
0.47621101 -0.31655601 0.106408
0.459023 -0.179056 0.111072
0.47621101 -0.179056 0.113049
0.52777302 -0.247806 0.109863
0.52777302 -0.230619 0.11472
0.52777302 -0.213431 0.116361
0.49339801 -0.179056 0.115583
0.51058602 -0.179056 0.11284
0.52777302 -0.196244 0.113067
-0.417539 0.23344401 0.114975
-0.400352 0.26781899 0.111939
-0.125352 0.164694 0.121648
-0.108164 0.164694 0.120429
-0.125352 0.181881 0.111446
-0.17691401 0.319381 0.11812
-0.17691401 0.33656901 0.111746
-0.17691401 0.35375601 0.112645
-0.245664 0.38813099 0.109219
0.33871099 0.164694 0.112878
0.269961 0.19906899 0.120362
0.20121101 0.21625599 0.115877
0.218399 0.21625599 0.115045
0.235586 0.21625599 0.108767
0.30433601 0.181881 0.121659
-0.26285201 -0.180269 0.138915
-0.264974 -0.179056 0.138915
-0.245664 -0.188823 0.138915
-0.211289 -0.201013 0.138915
-0.226546 -0.196244 0.138915
-0.228477 -0.195603 0.138915
-0.162839 -0.28218099 0.138915
-0.15972701 -0.273242 0.138915
-0.15831 -0.264994 0.138915
-0.157711 -0.247806 0.138915
-0.158989 -0.230619 0.138915
-0.15972701 -0.226247 0.138915
-0.16705801 -0.213431 0.138915
-0.194102 -0.20523199 0.138915
-0.17691401 -0.208689 0.138915
-0.34878901 -0.098925598 0.138915
-0.35225901 -0.093118504 0.138915
-0.35867399 -0.075930998 0.138915
-0.36136201 -0.058743499 0.138915
-0.36269701 -0.041556001 0.138915
-0.28003901 -0.16995899 0.138915
-0.29225901 -0.161869 0.138915
-0.297227 -0.15817501 0.138915
-0.312141 -0.14468101 0.138915
-0.31441399 -0.142001 0.138915
-0.32470301 -0.12749401 0.138915
-0.33160201 -0.118712 0.138915
-0.33952299 -0.110306 0.138915
-0.36463699 -0.0243685 0.138915
-0.36597699 -0.0112477 0.138915
-0.36622 -0.00718102 0.138915
-0.36597699 0.00385636 0.138915
-0.365145 0.0100065 0.138915
-0.36074999 0.027194001 0.138915
-0.354215 0.044381499 0.138915
-0.34878901 0.058789399 0.138915
-0.34878901 0.089960597 0.138915
-0.354931 0.095944002 0.138915
-0.34774601 0.061569002 0.138915
-0.34426501 0.078756496 0.138915
0.38858801 -0.31655601 0.138915
0.39027399 -0.315983 0.138915
0.40746099 -0.31650299 0.138915
0.407664 -0.31655601 0.138915
0.43142599 -0.31655601 0.138915
0.441836 -0.312253 0.138915
0.459023 -0.300464 0.138915
0.46029601 -0.29936901 0.138915
0.475714 -0.28218099 0.138915
0.47621101 -0.28145701 0.138915
0.441836 -0.229829 0.138915
0.42892599 -0.213431 0.138915
0.459023 -0.220128 0.138915
0.47621101 -0.21707501 0.138915
0.431867 -0.196244 0.138915
0.43318 -0.179056 0.138915
0.49070001 -0.247806 0.138915
0.49212101 -0.230619 0.138915
0.43503499 -0.161869 0.138915
0.43688899 -0.14468101 0.138915
-0.36597699 0.102684 0.138915
-0.38316399 0.110131 0.138915
-0.41201499 0.23344401 0.138915
-0.40503699 0.25063199 0.138915
-0.40235701 0.26781899 0.138915
-0.403449 0.28500599 0.138915
-0.40352899 0.302194 0.138915
-0.400352 0.31902599 0.138915
-0.400235 0.319381 0.138915
-0.39166701 0.33656901 0.138915
-0.125352 0.146937 0.138915
-0.13079099 0.147506 0.138915
-0.116369 0.147506 0.138915
-0.14101499 0.164694 0.138915
-0.108164 0.148453 0.138915
-0.14078701 0.181881 0.138915
-0.14239401 0.19906899 0.138915
-0.186528 0.302194 0.138915
-0.18553101 0.319381 0.138915
-0.189105 0.33656901 0.138915
-0.19061799 0.35375601 0.138915
-0.194102 0.367181 0.138915
-0.198824 0.37094399 0.138915
-0.228477 0.37891701 0.138915
-0.245664 0.380404 0.138915
-0.211289 0.37577799 0.138915
0.33871099 0.145028 0.138915
0.33592799 0.147506 0.138915
0.32152301 0.16041601 0.138915
0.316021 0.164694 0.138915
0.235586 0.198724 0.138915
0.23377199 0.19906899 0.138915
0.25277299 0.194213 0.138915
0.269961 0.18514501 0.138915
0.218399 0.200865 0.138915
0.20121101 0.20131101 0.138915
0.287148 0.17675 0.138915
0.27425101 0.181881 0.138915
0.30433601 0.171745 0.138915
-0.17691401 -0.29738501 0.138915
0.43758699 -0.12749401 0.138915
0.438521 -0.110306 0.138915
-0.42222801 0.19906899 0.138915
-0.418542 0.21625599 0.138915
-0.417539 0.21991301 0.138915
