# .PCD v0.7 - Point Cloud Data file format
VERSION 0.7
FIELDS x y z
SIZE 4 4 4
TYPE F F F
COUNT 1 1 1
WIDTH 1437
HEIGHT 1
VIEWPOINT 0 0 0 1 0 0 0
POINTS 1437
DATA ascii
-0.185717 -0.13414299 -0.49665201
-0.16853 -0.13414299 -0.496649
-0.151342 -0.15133099 -0.49668199
-0.13415501 -0.15133099 -0.49668401
-0.151342 -0.13414299 -0.49668401
-0.13415501 -0.13414299 -0.49668899
-0.116967 -0.25445601 -0.496613
-0.099780001 -0.25445601 -0.49660999
-0.116967 -0.237268 -0.496667
-0.099780001 -0.237268 -0.496663
-0.082592502 -0.25445601 -0.49666199
-0.065404996 -0.25445601 -0.49659801
-0.082592502 -0.237268 -0.49671799
-0.065404996 -0.237268 -0.496645
-0.116967 -0.220081 -0.496602
-0.099780001 -0.220081 -0.4966
-0.116967 -0.202893 -0.49666899
-0.099780001 -0.202893 -0.496665
-0.082592502 -0.220081 -0.496647
-0.065404996 -0.220081 -0.49657899
-0.082592502 -0.202893 -0.496723
-0.065404996 -0.202893 -0.49665299
-0.048217501 -0.25445601 -0.49665901
-0.031029999 -0.25445601 -0.496613
-0.048217501 -0.237268 -0.49671701
-0.031029999 -0.237268 -0.49666199
-0.0138425 -0.25445601 -0.49661601
0.0033450101 -0.25445601 -0.49664599
-0.0138425 -0.237268 -0.49666399
0.0033450101 -0.237268 -0.49669901
-0.048217501 -0.220081 -0.49665001
-0.031029999 -0.220081 -0.49659601
-0.048217501 -0.202893 -0.49671999
-0.031029999 -0.202893 -0.49666801
-0.0138425 -0.220081 -0.49660301
0.0033450101 -0.220081 -0.49663401
-0.0138425 -0.202893 -0.49667001
0.0033450101 -0.202893 -0.496705
-0.116967 -0.185706 -0.49662301
-0.099780001 -0.185706 -0.49662
-0.116967 -0.16851801 -0.49661899
-0.099780001 -0.16851801 -0.49661699
-0.082592502 -0.185706 -0.49666899
-0.065404996 -0.185706 -0.49660099
-0.082592502 -0.16851801 -0.496665
-0.065404996 -0.16851801 -0.49660099
-0.116967 -0.15133099 -0.49665001
-0.099780001 -0.15133099 -0.49664801
-0.116967 -0.13414299 -0.496656
-0.099780001 -0.13414299 -0.49665099
-0.082592502 -0.15133099 -0.496701
-0.065404996 -0.15133099 -0.49663299
-0.082592502 -0.13414299 -0.49670699
-0.065404996 -0.13414299 -0.49663401
-0.048217501 -0.185706 -0.49666899
-0.031029999 -0.185706 -0.496618
-0.048217501 -0.16851801 -0.49666601
-0.031029999 -0.16851801 -0.49661601
-0.0138425 -0.185706 -0.496622
0.0033450101 -0.185706 -0.49665201
-0.0138425 -0.16851801 -0.49662101
0.0033450101 -0.16851801 -0.49665201
-0.048217501 -0.15133099 -0.49670199
-0.031029999 -0.15133099 -0.496647
-0.048217501 -0.13414299 -0.49670601
-0.031029999 -0.13414299 -0.49665099
-0.0138425 -0.15133099 -0.49665299
0.0033450101 -0.15133099 -0.496687
-0.0138425 -0.13414299 -0.49665499
0.0033450101 -0.13414299 -0.49668801
-0.25446701 -0.116956 -0.496613
-0.23728 -0.116956 -0.496667
-0.25446701 -0.099767998 -0.49660999
-0.23728 -0.099767998 -0.496663
-0.220093 -0.116956 -0.496602
-0.202905 -0.116956 -0.49666899
-0.220093 -0.099767998 -0.49660099
-0.202905 -0.099767998 -0.496665
-0.25446701 -0.082580499 -0.496663
-0.23728 -0.082580499 -0.49671799
-0.25446701 -0.065393001 -0.49659699
-0.23728 -0.065393001 -0.49664399
-0.220093 -0.082580499 -0.496647
-0.202905 -0.082580499 -0.49672201
-0.220093 -0.065393001 -0.49657899
-0.202905 -0.065393001 -0.49665299
-0.185717 -0.116956 -0.49662301
-0.16853 -0.116956 -0.49662
-0.185717 -0.099767998 -0.49662
-0.16853 -0.099767998 -0.496618
-0.151342 -0.116956 -0.49665001
-0.13415501 -0.116956 -0.496656
-0.151342 -0.099767998 -0.49664801
-0.13415501 -0.099767998 -0.49665099
-0.185717 -0.082580499 -0.49666899
-0.16853 -0.082580499 -0.496665
-0.185717 -0.065393001 -0.49660099
-0.16853 -0.065393001 -0.49660099
-0.151342 -0.082580499 -0.496701
-0.13415501 -0.082580499 -0.49670699
-0.151342 -0.065393001 -0.49663299
-0.13415501 -0.065393001 -0.49663401
-0.25446701 -0.048205499 -0.49665901
-0.23728 -0.048205499 -0.49671799
-0.25446701 -0.031018 -0.496613
-0.23728 -0.031018 -0.49666199
-0.220093 -0.048205499 -0.49665001
-0.202905 -0.048205499 -0.49671999
-0.220093 -0.031018 -0.49659601
-0.202905 -0.031018 -0.496667
-0.25446701 -0.0138305 -0.49661601
-0.23728 -0.0138305 -0.49666399
-0.25446701 0.0033569899 -0.49664599
-0.23728 0.0033569899 -0.49669901
-0.220093 -0.0138305 -0.49660301
-0.202905 -0.0138305 -0.49667001
-0.220093 0.0033569899 -0.49663401
-0.202905 0.0033569899 -0.496705
-0.185717 -0.048205499 -0.49666899
-0.16853 -0.048205499 -0.496667
-0.185717 -0.031018 -0.496618
-0.16853 -0.031018 -0.49661601
-0.151342 -0.048205499 -0.49670199
-0.13415501 -0.048205499 -0.49670601
-0.151342 -0.031018 -0.496647
-0.13415501 -0.031018 -0.49665099
-0.185717 -0.0138305 -0.496622
-0.16853 -0.0138305 -0.49662101
-0.185717 0.0033569899 -0.49665201
-0.16853 0.0033569899 -0.49665201
-0.151342 -0.0138305 -0.49665299
-0.13415501 -0.0138305 -0.49665499
-0.151342 0.0033569899 -0.496687
-0.13415501 0.0033569899 -0.49668801
-0.116967 -0.116956 -0.49662399
-0.099780001 -0.116956 -0.49661899
-0.116967 -0.099767998 -0.49661899
-0.099780001 -0.099767998 -0.49661601
-0.082592502 -0.116956 -0.496674
-0.065404996 -0.116956 -0.49660599
-0.082592502 -0.099767998 -0.49666899
-0.065404996 -0.099767998 -0.496604
-0.116967 -0.082580499 -0.49667299
-0.099780001 -0.082580499 -0.49666899
-0.116967 -0.065393001 -0.49660501
-0.099780001 -0.065393001 -0.49660301
-0.082592502 -0.082580499 -0.49672499
-0.065404996 -0.082580499 -0.49665099
-0.082592502 -0.065393001 -0.49665099
-0.065404996 -0.065393001 -0.49658301
-0.048217501 -0.116956 -0.49667001
-0.031029999 -0.116956 -0.496622
-0.048217501 -0.099767998 -0.49666601
-0.031029999 -0.099767998 -0.49661899
-0.0138425 -0.116956 -0.49662501
0.0033450101 -0.116956 -0.49665499
-0.0138425 -0.099767998 -0.49662301
0.0033450101 -0.099767998 -0.49665299
-0.048217501 -0.082580499 -0.49672401
-0.031029999 -0.082580499 -0.49666899
-0.048217501 -0.065393001 -0.496654
-0.031029999 -0.065393001 -0.4966
-0.0138425 -0.082580499 -0.49667099
0.0033450101 -0.082580499 -0.49670601
-0.0138425 -0.065393001 -0.49660701
0.0033450101 -0.065393001 -0.496638
-0.116967 -0.048205499 -0.49667001
-0.099780001 -0.048205499 -0.49666601
-0.116967 -0.031018 -0.496622
-0.099780001 -0.031018 -0.49661899
-0.082592502 -0.048205499 -0.49672401
-0.065404996 -0.048205499 -0.496654
-0.082592502 -0.031018 -0.49666801
-0.065404996 -0.031018 -0.4966
-0.116967 -0.0138305 -0.49662501
-0.099780001 -0.0138305 -0.496622
-0.116967 0.0033569899 -0.49665499
-0.099780001 0.0033569899 -0.49665299
-0.082592502 -0.0138305 -0.49667099
-0.065404996 -0.0138305 -0.49660599
-0.082592502 0.0033569899 -0.49670601
-0.065404996 0.0033569899 -0.496638
-0.048217501 -0.048205499 -0.49672201
-0.031029999 -0.048205499 -0.49666899
-0.048217501 -0.031018 -0.49666899
-0.031029999 -0.031018 -0.49661699
-0.0138425 -0.048205499 -0.496672
0.0033450101 -0.048205499 -0.49670699
-0.0138425 -0.031018 -0.496622
0.0033450101 -0.031018 -0.49665201
-0.048217501 -0.0138305 -0.496672
-0.031029999 -0.0138305 -0.496622
-0.048217501 0.0033569899 -0.49670699
-0.031029999 0.0033569899 -0.49665201
-0.0138425 -0.0138305 -0.49662599
0.0033450101 -0.0138305 -0.49665701
-0.0138425 0.0033569899 -0.49665701
0.0033450101 0.0033569899 -0.496692
0.0205325 -0.47789299 -0.49787599
0.037719999 -0.47789299 -0.497769
0.054907501 -0.47789299 -0.49776599
0.072094999 -0.47789299 -0.49793899
0.089282498 -0.47789299 -0.49773601
0.10647 -0.47789299 -0.497924
0.123658 -0.47789299 -0.49776101
0.140845 -0.47789299 -0.497767
0.0205325 -0.460706 -0.49709499
0.037719999 -0.460706 -0.49702001
0.0205325 -0.44351801 -0.49683699
0.037719999 -0.44351801 -0.49678901
0.054907501 -0.460706 -0.49702999
0.072094999 -0.460706 -0.497152
0.054907501 -0.44351801 -0.496793
0.072094999 -0.44351801 -0.49686399
0.0205325 -0.42633101 -0.49670699
0.037719999 -0.42633101 -0.49667001
0.0205325 -0.409143 -0.49664199
0.037719999 -0.409143 -0.496609
0.054907501 -0.42633101 -0.49667299
0.072094999 -0.42633101 -0.496732
0.054907501 -0.409143 -0.496611
0.072094999 -0.409143 -0.496663
0.089282498 -0.460706 -0.49697199
0.10647 -0.460706 -0.49714199
0.089282498 -0.44351801 -0.496768
0.10647 -0.44351801 -0.49685499
0.123658 -0.460706 -0.49701199
0.140845 -0.460706 -0.497022
0.123658 -0.44351801 -0.49678501
0.140845 -0.44351801 -0.496786
0.089282498 -0.42633101 -0.49665099
0.10647 -0.42633101 -0.49672401
0.089282498 -0.409143 -0.49659601
0.10647 -0.409143 -0.49665499
0.123658 -0.42633101 -0.496667
0.140845 -0.42633101 -0.49666899
0.123658 -0.409143 -0.496609
0.140845 -0.409143 -0.49660999
0.158033 -0.47789299 -0.497931
0.17522 -0.47789299 -0.49773601
0.192407 -0.47789299 -0.497931
0.20959499 -0.47789299 -0.49776199
0.22678301 -0.47789299 -0.49777699
0.24397001 -0.47789299 -0.497881
0.26115799 -0.47789299 -0.49787501
0.27834499 -0.47789299 -0.49777299
0.158033 -0.460706 -0.49714699
0.17522 -0.460706 -0.49697199
0.158033 -0.44351801 -0.49685699
0.17522 -0.44351801 -0.49676999
0.192407 -0.460706 -0.49714801
0.20959499 -0.460706 -0.497022
0.192407 -0.44351801 -0.496858
0.20959499 -0.44351801 -0.496786
0.158033 -0.42633101 -0.49672601
0.17522 -0.42633101 -0.49665201
0.158033 -0.409143 -0.49665701
0.17522 -0.409143 -0.49659601
0.192407 -0.42633101 -0.49672699
0.20959499 -0.42633101 -0.49666899
0.192407 -0.409143 -0.49665901
0.20959499 -0.409143 -0.496609
0.22678301 -0.460706 -0.49702701
0.24397001 -0.460706 -0.49710199
0.22678301 -0.44351801 -0.49679399
0.24397001 -0.44351801 -0.496838
0.26115799 -0.460706 -0.49709699
0.27834499 -0.460706 -0.49702001
0.26115799 -0.44351801 -0.49683401
0.27834499 -0.44351801 -0.49678999
0.22678301 -0.42633101 -0.49667299
0.24397001 -0.42633101 -0.49670801
0.22678301 -0.409143 -0.49661201
0.24397001 -0.409143 -0.49664199
0.26115799 -0.42633101 -0.496705
0.27834499 -0.42633101 -0.49667001
0.26115799 -0.409143 -0.49663901
0.27834499 -0.409143 -0.49660999
0.0205325 -0.39195499 -0.49667099
0.037719999 -0.39195499 -0.49663901
0.0205325 -0.37476799 -0.496676
0.037719999 -0.37476799 -0.49664399
0.054907501 -0.39195499 -0.49664301
0.072094999 -0.39195499 -0.496692
0.054907501 -0.37476799 -0.49664801
0.072094999 -0.37476799 -0.496696
0.0205325 -0.35758099 -0.49664399
0.037719999 -0.35758099 -0.49661201
0.0205325 -0.34039301 -0.49664301
0.037719999 -0.34039301 -0.49661201
0.054907501 -0.35758099 -0.49661499
0.072094999 -0.35758099 -0.49666399
0.054907501 -0.34039301 -0.49661401
0.072094999 -0.34039301 -0.49666399
0.089282498 -0.39195499 -0.49661899
0.10647 -0.39195499 -0.49668899
0.089282498 -0.37476799 -0.49662501
0.10647 -0.37476799 -0.49669501
0.123658 -0.39195499 -0.49663299
0.140845 -0.39195499 -0.496636
0.123658 -0.37476799 -0.496638
0.140845 -0.37476799 -0.49664199
0.089282498 -0.35758099 -0.49659899
0.10647 -0.35758099 -0.496658
0.089282498 -0.34039301 -0.496593
0.10647 -0.34039301 -0.49665701
0.123658 -0.35758099 -0.496611
0.140845 -0.35758099 -0.49661401
0.123658 -0.34039301 -0.49660799
0.140845 -0.34039301 -0.496609
0.0205325 -0.32320601 -0.496696
0.037719999 -0.32320601 -0.49666101
0.0205325 -0.30601799 -0.49662501
0.037719999 -0.30601799 -0.496595
0.054907501 -0.32320601 -0.496663
0.072094999 -0.32320601 -0.49671701
0.054907501 -0.30601799 -0.49659899
0.072094999 -0.30601799 -0.49664599
0.0205325 -0.288831 -0.49669799
0.037719999 -0.288831 -0.496663
0.0205325 -0.27164301 -0.496645
0.037719999 -0.27164301 -0.49661401
0.054907501 -0.288831 -0.496665
0.072094999 -0.288831 -0.49671999
0.054907501 -0.27164301 -0.49661601
0.072094999 -0.27164301 -0.496665
0.089282498 -0.32320601 -0.49664399
0.10647 -0.32320601 -0.49671099
0.089282498 -0.30601799 -0.49657801
0.10647 -0.30601799 -0.49664301
0.123658 -0.32320601 -0.496658
0.140845 -0.32320601 -0.496658
0.123658 -0.30601799 -0.49659199
0.140845 -0.30601799 -0.49659699
0.089282498 -0.288831 -0.49664399
0.10647 -0.288831 -0.49671301
0.089282498 -0.27164301 -0.49659601
0.10647 -0.27164301 -0.49665901
0.123658 -0.288831 -0.49665901
0.140845 -0.288831 -0.496658
0.123658 -0.27164301 -0.49660999
0.140845 -0.27164301 -0.49661201
0.158033 -0.39195499 -0.49669001
0.17522 -0.39195499 -0.49662
0.158033 -0.37476799 -0.496696
0.17522 -0.37476799 -0.49662501
0.192407 -0.39195499 -0.49668899
0.20959499 -0.39195499 -0.496636
0.192407 -0.37476799 -0.496694
0.20959499 -0.37476799 -0.49664301
0.158033 -0.35758099 -0.49665999
0.17522 -0.35758099 -0.49659801
0.158033 -0.34039301 -0.49665701
0.17522 -0.34039301 -0.49659401
0.192407 -0.35758099 -0.49666101
0.20959499 -0.35758099 -0.496613
0.192407 -0.34039301 -0.496658
0.20959499 -0.34039301 -0.49660799
0.22678301 -0.39195499 -0.49664101
0.24397001 -0.39195499 -0.496672
0.22678301 -0.37476799 -0.49664399
0.24397001 -0.37476799 -0.49667701
0.26115799 -0.39195499 -0.49667001
0.27834499 -0.39195499 -0.496636
0.26115799 -0.37476799 -0.496676
0.27834499 -0.37476799 -0.49664
0.22678301 -0.35758099 -0.49661401
0.24397001 -0.35758099 -0.49664399
0.22678301 -0.34039301 -0.49661499
0.24397001 -0.34039301 -0.49664199
0.26115799 -0.35758099 -0.49664199
0.27834499 -0.35758099 -0.49661201
0.26115799 -0.34039301 -0.49663901
0.27834499 -0.34039301 -0.49660999
0.158033 -0.32320601 -0.49671099
0.17522 -0.32320601 -0.496645
0.158033 -0.30601799 -0.496645
0.17522 -0.30601799 -0.49657601
0.192407 -0.32320601 -0.49671099
0.20959499 -0.32320601 -0.49665701
0.192407 -0.30601799 -0.496645
0.20959499 -0.30601799 -0.49659601
0.158033 -0.288831 -0.49671301
0.17522 -0.288831 -0.49664599
0.158033 -0.27164301 -0.49665999
0.17522 -0.27164301 -0.49659699
0.192407 -0.288831 -0.49671301
0.20959499 -0.288831 -0.496658
0.192407 -0.27164301 -0.49665999
0.20959499 -0.27164301 -0.496611
0.22678301 -0.32320601 -0.496663
0.24397001 -0.32320601 -0.49669501
0.22678301 -0.30601799 -0.496595
0.24397001 -0.30601799 -0.49662599
0.26115799 -0.32320601 -0.496692
0.27834499 -0.32320601 -0.49665901
0.26115799 -0.30601799 -0.49662399
0.27834499 -0.30601799 -0.49659199
0.22678301 -0.288831 -0.49666601
0.24397001 -0.288831 -0.49669701
0.22678301 -0.27164301 -0.49661499
0.24397001 -0.27164301 -0.49664399
0.26115799 -0.288831 -0.49669299
0.27834499 -0.288831 -0.49665999
0.26115799 -0.27164301 -0.49664101
0.27834499 -0.27164301 -0.496611
0.295533 -0.47789299 -0.49776801
0.31272 -0.47789299 -0.49793199
0.32990801 -0.47789299 -0.49773499
0.34709501 -0.47789299 -0.49792901
0.364283 -0.47789299 -0.49776101
0.38146999 -0.47789299 -0.497767
0.39865801 -0.47789299 -0.49793199
0.41584501 -0.47789299 -0.49774101
0.295533 -0.460706 -0.49702701
0.31272 -0.460706 -0.497152
0.295533 -0.44351801 -0.49678901
0.31272 -0.44351801 -0.49685901
0.32990801 -0.460706 -0.49697
0.34709501 -0.460706 -0.49714199
0.32990801 -0.44351801 -0.496768
0.34709501 -0.44351801 -0.49685401
0.295533 -0.42633101 -0.49667099
0.31272 -0.42633101 -0.496728
0.295533 -0.409143 -0.49661201
0.31272 -0.409143 -0.496658
0.32990801 -0.42633101 -0.49665001
0.34709501 -0.42633101 -0.49672401
0.32990801 -0.409143 -0.496593
0.34709501 -0.409143 -0.496656
0.364283 -0.460706 -0.497017
0.38146999 -0.460706 -0.49702099
0.364283 -0.44351801 -0.49678501
0.38146999 -0.44351801 -0.49679399
0.39865801 -0.460706 -0.49714601
0.41584501 -0.460706 -0.49698099
0.39865801 -0.44351801 -0.49686
0.41584501 -0.44351801 -0.496775
0.364283 -0.42633101 -0.496667
0.38146999 -0.42633101 -0.49667299
0.364283 -0.409143 -0.49660701
0.38146999 -0.409143 -0.49661201
0.39865801 -0.42633101 -0.496728
0.41584501 -0.42633101 -0.49665701
0.39865801 -0.409143 -0.496658
0.41584501 -0.409143 -0.49659899
0.43303299 -0.47789299 -0.49797401
0.45021999 -0.47789299 -0.49788201
0.467408 -0.47789299 -0.49818301
0.484595 -0.47789299 -0.498806
0.43303299 -0.460706 -0.497206
0.45021999 -0.460706 -0.49714801
0.43303299 -0.44351801 -0.496939
0.45021999 -0.44351801 -0.49694499
0.467408 -0.460706 -0.49742901
0.484595 -0.460706 -0.497886
0.467408 -0.44351801 -0.49725601
0.484595 -0.44351801 -0.49764699
0.43303299 -0.42633101 -0.496797
0.45021999 -0.42633101 -0.49680799
0.43303299 -0.409143 -0.49672699
0.45021999 -0.409143 -0.496746
0.467408 -0.42633101 -0.49707699
0.484595 -0.42633101 -0.49746799
0.467408 -0.409143 -0.497017
0.484595 -0.409143 -0.49743199
0.295533 -0.39195499 -0.496636
0.31272 -0.39195499 -0.49669001
0.295533 -0.37476799 -0.49664199
0.31272 -0.37476799 -0.496696
0.32990801 -0.39195499 -0.49661699
0.34709501 -0.39195499 -0.49668401
0.32990801 -0.37476799 -0.496622
0.34709501 -0.37476799 -0.49668899
0.295533 -0.35758099 -0.49661401
0.31272 -0.35758099 -0.49665999
0.295533 -0.34039301 -0.496609
0.31272 -0.34039301 -0.49665701
0.32990801 -0.35758099 -0.496595
0.34709501 -0.35758099 -0.496656
0.32990801 -0.34039301 -0.49658999
0.34709501 -0.34039301 -0.49665299
0.364283 -0.39195499 -0.49663499
0.38146999 -0.39195499 -0.49663901
0.364283 -0.37476799 -0.49664101
0.38146999 -0.37476799 -0.49664199
0.39865801 -0.39195499 -0.49668899
0.41584501 -0.39195499 -0.496627
0.39865801 -0.37476799 -0.496692
0.41584501 -0.37476799 -0.49663201
0.364283 -0.35758099 -0.49660999
0.38146999 -0.35758099 -0.49661201
0.364283 -0.34039301 -0.49660501
0.38146999 -0.34039301 -0.49661201
0.39865801 -0.35758099 -0.49665701
0.41584501 -0.35758099 -0.49660099
0.39865801 -0.34039301 -0.496656
0.41584501 -0.34039301 -0.496595
0.295533 -0.32320601 -0.49665701
0.31272 -0.32320601 -0.49670899
0.295533 -0.30601799 -0.49659699
0.31272 -0.30601799 -0.49664399
0.32990801 -0.32320601 -0.49664101
0.34709501 -0.32320601 -0.496705
0.32990801 -0.30601799 -0.49657199
0.34709501 -0.30601799 -0.49663901
0.295533 -0.288831 -0.49665701
0.31272 -0.288831 -0.49671099
0.295533 -0.27164301 -0.496611
0.31272 -0.27164301 -0.496658
0.32990801 -0.288831 -0.49664101
0.34709501 -0.288831 -0.49670601
0.32990801 -0.27164301 -0.49659199
0.34709501 -0.27164301 -0.496654
0.364283 -0.32320601 -0.49665299
0.38146999 -0.32320601 -0.49665999
0.364283 -0.30601799 -0.49659199
0.38146999 -0.30601799 -0.496591
0.39865801 -0.32320601 -0.49670801
0.41584501 -0.32320601 -0.496647
0.39865801 -0.30601799 -0.49663901
0.41584501 -0.30601799 -0.49658
0.364283 -0.288831 -0.49665299
0.38146999 -0.288831 -0.49666199
0.364283 -0.27164301 -0.49660701
0.38146999 -0.27164301 -0.496611
0.39865801 -0.288831 -0.49670899
0.41584501 -0.288831 -0.496645
0.39865801 -0.27164301 -0.49665499
0.41584501 -0.27164301 -0.49659601
0.43303299 -0.39195499 -0.496764
0.45021999 -0.39195499 -0.49678701
0.43303299 -0.37476799 -0.496766
0.45021999 -0.37476799 -0.49679101
0.467408 -0.39195499 -0.497096
0.484595 -0.39195499 -0.49749801
0.467408 -0.37476799 -0.4971
0.484595 -0.37476799 -0.49749699
0.43303299 -0.35758099 -0.49672601
0.45021999 -0.35758099 -0.496748
0.43303299 -0.34039301 -0.49672601
0.45021999 -0.34039301 -0.49674499
0.467408 -0.35758099 -0.49702001
0.484595 -0.35758099 -0.497428
0.467408 -0.34039301 -0.49701601
0.484595 -0.34039301 -0.49742499
0.43303299 -0.32320601 -0.49678701
0.45021999 -0.32320601 -0.496811
0.43303299 -0.30601799 -0.49670199
0.45021999 -0.30601799 -0.49672201
0.467408 -0.32320601 -0.49713999
0.484595 -0.32320601 -0.49752599
0.467408 -0.30601799 -0.49697199
0.484595 -0.30601799 -0.49741301
0.43303299 -0.288831 -0.49678901
0.45021999 -0.288831 -0.49680999
0.43303299 -0.27164301 -0.496723
0.45021999 -0.27164301 -0.49674299
0.467408 -0.288831 -0.49713799
0.484595 -0.288831 -0.49752501
0.467408 -0.27164301 -0.497013
0.484595 -0.27164301 -0.49742201
0.0205325 -0.25445601 -0.49664301
0.037719999 -0.25445601 -0.496611
0.0205325 -0.237268 -0.49669901
0.037719999 -0.237268 -0.496665
0.054907501 -0.25445601 -0.496613
0.072094999 -0.25445601 -0.49666399
0.054907501 -0.237268 -0.496667
0.072094999 -0.237268 -0.496721
0.0205325 -0.220081 -0.496629
0.037719999 -0.220081 -0.49659899
0.0205325 -0.202893 -0.49670401
0.037719999 -0.202893 -0.496667
0.054907501 -0.220081 -0.496604
0.072094999 -0.220081 -0.496649
0.054907501 -0.202893 -0.49666899
0.072094999 -0.202893 -0.49672499
0.089282498 -0.25445601 -0.49659801
0.10647 -0.25445601 -0.49665701
0.089282498 -0.237268 -0.49664399
0.10647 -0.237268 -0.49671501
0.123658 -0.25445601 -0.49660999
0.140845 -0.25445601 -0.49661201
0.123658 -0.237268 -0.49665999
0.140845 -0.237268 -0.49665901
0.089282498 -0.220081 -0.49657899
0.10647 -0.220081 -0.496647
0.089282498 -0.202893 -0.49665299
0.10647 -0.202893 -0.49671799
0.123658 -0.220081 -0.49659401
0.140845 -0.220081 -0.49659801
0.123658 -0.202893 -0.496665
0.140845 -0.202893 -0.49666601
0.0205325 -0.185706 -0.49665099
0.037719999 -0.185706 -0.49662101
0.0205325 -0.16851801 -0.49664801
0.037719999 -0.16851801 -0.49661699
0.054907501 -0.185706 -0.49662399
0.072094999 -0.185706 -0.49667099
0.054907501 -0.16851801 -0.49662101
0.072094999 -0.16851801 -0.49666801
0.0205325 -0.15133099 -0.496683
0.037719999 -0.15133099 -0.49664801
0.0205325 -0.13414299 -0.496687
0.037719999 -0.13414299 -0.49665299
0.054907501 -0.15133099 -0.49665201
0.072094999 -0.15133099 -0.496703
0.054907501 -0.13414299 -0.496656
0.072094999 -0.13414299 -0.49670899
0.089282498 -0.185706 -0.49660099
0.10647 -0.185706 -0.496667
0.089282498 -0.16851801 -0.49660099
0.10647 -0.16851801 -0.49666399
0.123658 -0.185706 -0.49661601
0.140845 -0.185706 -0.496618
0.123658 -0.16851801 -0.49661401
0.140845 -0.16851801 -0.49661699
0.089282498 -0.15133099 -0.49663299
0.10647 -0.15133099 -0.49669999
0.089282498 -0.13414299 -0.49663401
0.10647 -0.13414299 -0.49670401
0.123658 -0.15133099 -0.496645
0.140845 -0.15133099 -0.49664801
0.123658 -0.13414299 -0.496649
0.140845 -0.13414299 -0.49665001
0.158033 -0.25445601 -0.49665901
0.17522 -0.25445601 -0.49659601
0.158033 -0.237268 -0.496714
0.17522 -0.237268 -0.49664599
0.192407 -0.25445601 -0.49665999
0.20959499 -0.25445601 -0.49660999
0.192407 -0.237268 -0.496714
0.20959499 -0.237268 -0.49665901
0.158033 -0.220081 -0.496649
0.17522 -0.220081 -0.49657801
0.158033 -0.202893 -0.49671799
0.17522 -0.202893 -0.49665299
0.192407 -0.220081 -0.496647
0.20959499 -0.220081 -0.49659899
0.192407 -0.202893 -0.496719
0.20959499 -0.202893 -0.49666399
0.22678301 -0.25445601 -0.49661201
0.24397001 -0.25445601 -0.49664199
0.22678301 -0.237268 -0.496667
0.24397001 -0.237268 -0.49669701
0.26115799 -0.25445601 -0.49663901
0.27834499 -0.25445601 -0.496609
0.26115799 -0.237268 -0.496694
0.27834499 -0.237268 -0.49665999
0.22678301 -0.220081 -0.49659801
0.24397001 -0.220081 -0.496629
0.22678301 -0.202893 -0.49666801
0.24397001 -0.202893 -0.496701
0.26115799 -0.220081 -0.496627
0.27834499 -0.220081 -0.49659401
0.26115799 -0.202893 -0.49669799
0.27834499 -0.202893 -0.49666399
0.158033 -0.185706 -0.496667
0.17522 -0.185706 -0.49660099
0.158033 -0.16851801 -0.496665
0.17522 -0.16851801 -0.4966
0.192407 -0.185706 -0.49666601
0.20959499 -0.185706 -0.49661699
0.192407 -0.16851801 -0.496665
0.20959499 -0.16851801 -0.49661601
0.158033 -0.15133099 -0.496701
0.17522 -0.15133099 -0.496631
0.158033 -0.13414299 -0.49670401
0.17522 -0.13414299 -0.49663401
0.192407 -0.15133099 -0.49669999
0.20959499 -0.15133099 -0.496647
0.192407 -0.13414299 -0.496703
0.20959499 -0.13414299 -0.49664801
0.22678301 -0.185706 -0.49662101
0.24397001 -0.185706 -0.496649
0.22678301 -0.16851801 -0.49661699
0.24397001 -0.16851801 -0.496647
0.26115799 -0.185706 -0.49664599
0.27834499 -0.185706 -0.49661601
0.26115799 -0.16851801 -0.496645
0.27834499 -0.16851801 -0.496613
0.22678301 -0.15133099 -0.496647
0.24397001 -0.15133099 -0.49668199
0.22678301 -0.13414299 -0.496654
0.24397001 -0.13414299 -0.49668601
0.26115799 -0.15133099 -0.49667901
0.27834499 -0.15133099 -0.49664399
0.26115799 -0.13414299 -0.49668199
0.27834499 -0.13414299 -0.49664801
0.0205325 -0.116956 -0.49665499
0.037719999 -0.116956 -0.496622
0.0205325 -0.099767998 -0.49665001
0.037719999 -0.099767998 -0.496618
0.054907501 -0.116956 -0.49662301
0.072094999 -0.116956 -0.496676
0.054907501 -0.099767998 -0.49662
0.072094999 -0.099767998 -0.49667099
0.0205325 -0.082580499 -0.49670601
0.037719999 -0.082580499 -0.49667099
0.0205325 -0.065393001 -0.49663201
0.037719999 -0.065393001 -0.49660301
0.054907501 -0.082580499 -0.496674
0.072094999 -0.082580499 -0.496728
0.054907501 -0.065393001 -0.49660799
0.072094999 -0.065393001 -0.49665299
0.089282498 -0.116956 -0.49660501
0.10647 -0.116956 -0.49666801
0.089282498 -0.099767998 -0.496604
0.10647 -0.099767998 -0.49666399
0.123658 -0.116956 -0.49662
0.140845 -0.116956 -0.49662
0.123658 -0.099767998 -0.49661601
0.140845 -0.099767998 -0.49661899
0.089282498 -0.082580499 -0.49665099
0.10647 -0.082580499 -0.49672201
0.089282498 -0.065393001 -0.49658301
0.10647 -0.065393001 -0.49665201
0.123658 -0.082580499 -0.49666601
0.140845 -0.082580499 -0.49666601
0.123658 -0.065393001 -0.49659699
0.140845 -0.065393001 -0.496602
0.0205325 -0.048205499 -0.496705
0.037719999 -0.048205499 -0.49666801
0.0205325 -0.031018 -0.49665001
0.037719999 -0.031018 -0.49662
0.054907501 -0.048205499 -0.49667001
0.072094999 -0.048205499 -0.49672699
0.054907501 -0.031018 -0.49662301
0.072094999 -0.031018 -0.49667099
0.0205325 -0.0138305 -0.496654
0.037719999 -0.0138305 -0.49662301
0.0205325 0.0033569899 -0.49668801
0.037719999 0.0033569899 -0.49665299
0.054907501 -0.0138305 -0.49662599
0.072094999 -0.0138305 -0.49667299
0.054907501 0.0033569899 -0.496656
0.072094999 0.0033569899 -0.49670801
0.089282498 -0.048205499 -0.496654
0.10647 -0.048205499 -0.496719
0.089282498 -0.031018 -0.4966
0.10647 -0.031018 -0.49666601
0.123658 -0.048205499 -0.49666601
0.140845 -0.048205499 -0.496667
0.123658 -0.031018 -0.49661499
0.140845 -0.031018 -0.49661699
0.089282498 -0.0138305 -0.49660599
0.10647 -0.0138305 -0.49667001
0.089282498 0.0033569899 -0.496638
0.10647 0.0033569899 -0.496705
0.123658 -0.0138305 -0.49661899
0.140845 -0.0138305 -0.496622
0.123658 0.0033569899 -0.496649
0.140845 0.0033569899 -0.49665299
0.158033 -0.116956 -0.49666899
0.17522 -0.116956 -0.49660599
0.158033 -0.099767998 -0.49666601
0.17522 -0.099767998 -0.496602
0.192407 -0.116956 -0.49667001
0.20959499 -0.116956 -0.496618
0.192407 -0.099767998 -0.496667
0.20959499 -0.099767998 -0.49661601
0.158033 -0.082580499 -0.496721
0.17522 -0.082580499 -0.49665201
0.158033 -0.065393001 -0.49665299
0.17522 -0.065393001 -0.49658099
0.192407 -0.082580499 -0.49671999
0.20959499 -0.082580499 -0.496665
0.192407 -0.065393001 -0.49665099
0.20959499 -0.065393001 -0.496602
0.22678301 -0.116956 -0.49662399
0.24397001 -0.116956 -0.49665201
0.22678301 -0.099767998 -0.496618
0.24397001 -0.099767998 -0.49664801
0.26115799 -0.116956 -0.49664801
0.27834499 -0.116956 -0.49661899
0.26115799 -0.099767998 -0.496645
0.27834499 -0.099767998 -0.49661499
0.22678301 -0.082580499 -0.49667299
0.24397001 -0.082580499 -0.496703
0.22678301 -0.065393001 -0.49660099
0.24397001 -0.065393001 -0.49663201
0.26115799 -0.082580499 -0.49669901
0.27834499 -0.082580499 -0.49666601
0.26115799 -0.065393001 -0.49663001
0.27834499 -0.065393001 -0.49659699
0.158033 -0.048205499 -0.49671999
0.17522 -0.048205499 -0.496654
0.158033 -0.031018 -0.496667
0.17522 -0.031018 -0.4966
0.192407 -0.048205499 -0.496721
0.20959499 -0.048205499 -0.496665
0.192407 -0.031018 -0.49666601
0.20959499 -0.031018 -0.49661601
0.158033 -0.0138305 -0.49667001
0.17522 -0.0138305 -0.49660501
0.158033 0.0033569899 -0.49670601
0.17522 0.0033569899 -0.496636
0.192407 -0.0138305 -0.49667001
0.20959499 -0.0138305 -0.49662101
0.192407 0.0033569899 -0.496705
0.20959499 0.0033569899 -0.49665099
0.22678301 -0.048205499 -0.49666899
0.24397001 -0.048205499 -0.49670199
0.22678301 -0.031018 -0.49662
0.24397001 -0.031018 -0.49664801
0.26115799 -0.048205499 -0.49669901
0.27834499 -0.048205499 -0.496665
0.26115799 -0.031018 -0.496645
0.27834499 -0.031018 -0.49661401
0.22678301 -0.0138305 -0.496622
0.24397001 -0.0138305 -0.49665201
0.22678301 0.0033569899 -0.49665201
0.24397001 0.0033569899 -0.49668601
0.26115799 -0.0138305 -0.496649
0.27834499 -0.0138305 -0.496618
0.26115799 0.0033569899 -0.496683
0.27834499 0.0033569899 -0.49664801
0.295533 -0.25445601 -0.496611
0.31272 -0.25445601 -0.49665701
0.295533 -0.237268 -0.49665701
0.31272 -0.237268 -0.49671099
0.32990801 -0.25445601 -0.496591
0.34709501 -0.25445601 -0.49665299
0.32990801 -0.237268 -0.49664
0.34709501 -0.237268 -0.496705
0.295533 -0.220081 -0.49659699
0.31272 -0.220081 -0.49664599
0.295533 -0.202893 -0.49666399
0.31272 -0.202893 -0.49671501
0.32990801 -0.220081 -0.49657199
0.34709501 -0.220081 -0.49664
0.32990801 -0.202893 -0.496647
0.34709501 -0.202893 -0.49671099
0.364283 -0.25445601 -0.49660501
0.38146999 -0.25445601 -0.49660799
0.364283 -0.237268 -0.496654
0.38146999 -0.237268 -0.49666101
0.39865801 -0.25445601 -0.49665299
0.41584501 -0.25445601 -0.496595
0.39865801 -0.237268 -0.49670899
0.41584501 -0.237268 -0.496645
0.364283 -0.220081 -0.496593
0.38146999 -0.220081 -0.496593
0.364283 -0.202893 -0.496658
0.38146999 -0.202893 -0.49666199
0.39865801 -0.220081 -0.49664
0.41584501 -0.220081 -0.49657899
0.39865801 -0.202893 -0.49671099
0.41584501 -0.202893 -0.49665001
0.295533 -0.185706 -0.49661601
0.31272 -0.185706 -0.49666399
0.295533 -0.16851801 -0.49661499
0.31272 -0.16851801 -0.49666199
0.32990801 -0.185706 -0.496595
0.34709501 -0.185706 -0.496658
0.32990801 -0.16851801 -0.49659401
0.34709501 -0.16851801 -0.496656
0.295533 -0.15133099 -0.49664599
0.31272 -0.15133099 -0.49669701
0.295533 -0.13414299 -0.496647
0.31272 -0.13414299 -0.49669999
0.32990801 -0.15133099 -0.49662501
0.34709501 -0.15133099 -0.49669099
0.32990801 -0.13414299 -0.496627
0.34709501 -0.13414299 -0.496694
0.364283 -0.185706 -0.496611
0.38146999 -0.185706 -0.49661499
0.364283 -0.16851801 -0.49660999
0.38146999 -0.16851801 -0.496611
0.39865801 -0.185706 -0.49665901
0.41584501 -0.185706 -0.4966
0.39865801 -0.16851801 -0.496656
0.41584501 -0.16851801 -0.49659899
0.364283 -0.15133099 -0.49664
0.38146999 -0.15133099 -0.49664101
0.364283 -0.13414299 -0.49664199
0.38146999 -0.13414299 -0.496647
0.39865801 -0.15133099 -0.49669099
0.41584501 -0.15133099 -0.49663001
0.39865801 -0.13414299 -0.49669501
0.41584501 -0.13414299 -0.496631
0.43303299 -0.25445601 -0.49671999
0.45021999 -0.25445601 -0.49674001
0.43303299 -0.237268 -0.49678701
0.45021999 -0.237268 -0.49680901
0.467408 -0.25445601 -0.497006
0.484595 -0.25445601 -0.497421
0.467408 -0.237268 -0.49713701
0.484595 -0.237268 -0.49752501
0.43303299 -0.220081 -0.49670199
0.45021999 -0.220081 -0.49672201
0.43303299 -0.202893 -0.49678901
0.45021999 -0.202893 -0.496813
0.467408 -0.220081 -0.49697399
0.484595 -0.220081 -0.49741301
0.467408 -0.202893 -0.49713999
0.484595 -0.202893 -0.49752399
0.43303299 -0.185706 -0.49672699
0.45021999 -0.185706 -0.496748
0.43303299 -0.16851801 -0.49672201
0.45021999 -0.16851801 -0.49674401
0.467408 -0.185706 -0.49702099
0.484595 -0.185706 -0.49742299
0.467408 -0.16851801 -0.49701601
0.484595 -0.16851801 -0.49742401
0.43303299 -0.15133099 -0.49676299
0.45021999 -0.15133099 -0.49678701
0.43303299 -0.13414299 -0.49676901
0.45021999 -0.13414299 -0.49679101
0.467408 -0.15133099 -0.497091
0.484595 -0.15133099 -0.49749401
0.467408 -0.13414299 -0.49709901
0.484595 -0.13414299 -0.49750099
0.295533 -0.116956 -0.496618
0.31272 -0.116956 -0.496665
0.295533 -0.099767998 -0.49661601
0.31272 -0.099767998 -0.49666199
0.32990801 -0.116956 -0.4966
0.34709501 -0.116956 -0.49666101
0.32990801 -0.099767998 -0.49659601
0.34709501 -0.099767998 -0.496658
0.295533 -0.082580499 -0.496663
0.31272 -0.082580499 -0.49671701
0.295533 -0.065393001 -0.4966
0.31272 -0.065393001 -0.496649
0.32990801 -0.082580499 -0.496645
0.34709501 -0.082580499 -0.49671
0.32990801 -0.065393001 -0.496575
0.34709501 -0.065393001 -0.49664199
0.364283 -0.116956 -0.496611
0.38146999 -0.116956 -0.49661699
0.364283 -0.099767998 -0.496609
0.38146999 -0.099767998 -0.49661201
0.39865801 -0.116956 -0.49666101
0.41584501 -0.116956 -0.49660099
0.39865801 -0.099767998 -0.49665701
0.41584501 -0.099767998 -0.49659899
0.364283 -0.082580499 -0.496658
0.38146999 -0.082580499 -0.496665
0.364283 -0.065393001 -0.496595
0.38146999 -0.065393001 -0.496595
0.39865801 -0.082580499 -0.49671301
0.41584501 -0.082580499 -0.49664801
0.39865801 -0.065393001 -0.49664199
0.41584501 -0.065393001 -0.49658099
0.295533 -0.048205499 -0.49666399
0.31272 -0.048205499 -0.49671501
0.295533 -0.031018 -0.49661401
0.31272 -0.031018 -0.496663
0.32990801 -0.048205499 -0.49664599
0.34709501 -0.048205499 -0.49671099
0.32990801 -0.031018 -0.496593
0.34709501 -0.031018 -0.496656
0.295533 -0.0138305 -0.49662
0.31272 -0.0138305 -0.49666601
0.295533 0.0033569899 -0.49665001
0.31272 0.0033569899 -0.496701
0.32990801 -0.0138305 -0.49659899
0.34709501 -0.0138305 -0.49666101
0.32990801 0.0033569899 -0.496629
0.34709501 0.0033569899 -0.49669501
0.364283 -0.048205499 -0.49665701
0.38146999 -0.048205499 -0.49666199
0.364283 -0.031018 -0.496609
0.38146999 -0.031018 -0.496613
0.39865801 -0.048205499 -0.49671099
0.41584501 -0.048205499 -0.496649
0.39865801 -0.031018 -0.49665701
0.41584501 -0.031018 -0.49659699
0.364283 -0.0138305 -0.49661401
0.38146999 -0.0138305 -0.49661499
0.364283 0.0033569899 -0.49664399
0.38146999 0.0033569899 -0.496645
0.39865801 -0.0138305 -0.49665999
0.41584501 -0.0138305 -0.49660301
0.39865801 0.0033569899 -0.496694
0.41584501 0.0033569899 -0.49663401
0.43303299 -0.116956 -0.49673
0.45021999 -0.116956 -0.496748
0.43303299 -0.099767998 -0.496723
0.45021999 -0.099767998 -0.49674401
0.467408 -0.116956 -0.497022
0.484595 -0.116956 -0.49743
0.467408 -0.099767998 -0.49700999
0.484595 -0.099767998 -0.497419
0.43303299 -0.082580499 -0.49679101
0.45021999 -0.082580499 -0.49681199
0.43303299 -0.065393001 -0.49670401
0.45021999 -0.065393001 -0.496723
0.467408 -0.082580499 -0.49713999
0.484595 -0.082580499 -0.49752501
0.467408 -0.065393001 -0.496975
0.484595 -0.065393001 -0.49741301
0.43303299 -0.048205499 -0.49678701
0.45021999 -0.048205499 -0.496811
0.43303299 -0.031018 -0.49672401
0.45021999 -0.031018 -0.49674401
0.467408 -0.048205499 -0.49713701
0.484595 -0.048205499 -0.49752599
0.467408 -0.031018 -0.497015
0.484595 -0.031018 -0.49742299
0.43303299 -0.0138305 -0.49672699
0.45021999 -0.0138305 -0.49674901
0.43303299 0.0033569899 -0.496766
0.45021999 0.0033569899 -0.49678999
0.467408 -0.0138305 -0.49702501
0.484595 -0.0138305 -0.49742901
0.467408 0.0033569899 -0.49709699
0.484595 0.0033569899 -0.49749601
-0.47790501 0.020544499 -0.497877
-0.47790501 0.037732001 -0.497769
-0.47790501 0.0549195 -0.49776801
-0.47790501 0.072107002 -0.49793899
-0.46071699 0.020544499 -0.497096
-0.44352999 0.020544499 -0.49683601
-0.46071699 0.037732001 -0.49702099
-0.44352999 0.037732001 -0.49678901
-0.42634201 0.020544499 -0.49670699
-0.40915501 0.020544499 -0.49664199
-0.42634201 0.037732001 -0.49667001
-0.40915501 0.037732001 -0.496609
-0.46071699 0.0549195 -0.49702999
-0.44352999 0.0549195 -0.496793
-0.46071699 0.072107002 -0.49715301
-0.44352999 0.072107002 -0.49686399
-0.42634201 0.0549195 -0.496672
-0.40915501 0.0549195 -0.496611
-0.42634201 0.072107002 -0.49673101
-0.40915501 0.072107002 -0.496663
-0.47790501 0.089294501 -0.49773699
-0.47790501 0.106482 -0.497926
-0.47790501 0.12367 -0.49776301
-0.47790501 0.140857 -0.49776599
-0.46071699 0.089294501 -0.49697301
-0.44352999 0.089294501 -0.49676701
-0.46071699 0.106482 -0.497143
-0.44352999 0.106482 -0.496856
-0.42634201 0.089294501 -0.49665099
-0.40915501 0.089294501 -0.496595
-0.42634201 0.106482 -0.49672499
-0.40915501 0.106482 -0.49665499
-0.46071699 0.12367 -0.497013
-0.44352999 0.12367 -0.49678501
-0.46071699 0.140857 -0.497022
-0.44352999 0.140857 -0.496786
-0.42634201 0.12367 -0.496667
-0.40915501 0.12367 -0.496609
-0.42634201 0.140857 -0.49666899
-0.40915501 0.140857 -0.49660999
-0.391967 0.020544499 -0.49667099
-0.37478 0.020544499 -0.496676
-0.391967 0.037732001 -0.49664
-0.37478 0.037732001 -0.496645
-0.35759199 0.020544499 -0.49664399
-0.34040499 0.020544499 -0.49664301
-0.35759199 0.037732001 -0.49661201
-0.34040499 0.037732001 -0.49661201
-0.391967 0.0549195 -0.49664301
-0.37478 0.0549195 -0.496649
-0.391967 0.072107002 -0.496692
-0.37478 0.072107002 -0.496696
-0.35759199 0.0549195 -0.49661499
-0.34040499 0.0549195 -0.49661401
-0.35759199 0.072107002 -0.49666399
-0.34040499 0.072107002 -0.49666399
-0.32321799 0.020544499 -0.496696
-0.30603001 0.020544499 -0.49662599
-0.32321799 0.037732001 -0.49666101
-0.30603001 0.037732001 -0.496595
-0.28884199 0.020544499 -0.49669799
-0.27165499 0.020544499 -0.496645
-0.28884199 0.037732001 -0.49666399
-0.27165499 0.037732001 -0.49661401
-0.32321799 0.0549195 -0.49666199
-0.30603001 0.0549195 -0.4966
-0.32321799 0.072107002 -0.49671701
-0.30603001 0.072107002 -0.496647
-0.28884199 0.0549195 -0.496665
-0.27165499 0.0549195 -0.49661601
-0.28884199 0.072107002 -0.49671999
-0.27165499 0.072107002 -0.496665
-0.391967 0.089294501 -0.49661899
-0.37478 0.089294501 -0.49662599
-0.391967 0.106482 -0.49669001
-0.37478 0.106482 -0.49669501
-0.35759199 0.089294501 -0.49659899
-0.34040499 0.089294501 -0.49659199
-0.35759199 0.106482 -0.496658
-0.34040499 0.106482 -0.49665701
-0.391967 0.12367 -0.49663299
-0.37478 0.12367 -0.496638
-0.391967 0.140857 -0.496636
-0.37478 0.140857 -0.49664199
-0.35759199 0.12367 -0.496611
-0.34040499 0.12367 -0.49660799
-0.35759199 0.140857 -0.49661401
-0.34040499 0.140857 -0.496609
-0.32321799 0.089294501 -0.49664301
-0.30603001 0.089294501 -0.49657801
-0.32321799 0.106482 -0.49671099
-0.30603001 0.106482 -0.49664399
-0.28884199 0.089294501 -0.49664301
-0.27165499 0.089294501 -0.49659601
-0.28884199 0.106482 -0.49671301
-0.27165499 0.106482 -0.49665901
-0.32321799 0.12367 -0.49665701
-0.30603001 0.12367 -0.49659199
-0.32321799 0.140857 -0.496658
-0.30603001 0.140857 -0.49659601
-0.28884199 0.12367 -0.49665901
-0.27165499 0.12367 -0.49660999
-0.28884199 0.140857 -0.496658
-0.27165499 0.140857 -0.49661201
-0.47790501 0.15804499 -0.49792999
-0.47790501 0.17523199 -0.49773699
-0.47790501 0.19241901 -0.497933
-0.47790501 0.20960701 -0.49776399
-0.46071699 0.15804499 -0.49714699
-0.44352999 0.15804499 -0.49685699
-0.46071699 0.17523199 -0.49697301
-0.44352999 0.17523199 -0.49676901
-0.42634201 0.15804499 -0.49672601
-0.40915501 0.15804499 -0.49665701
-0.42634201 0.17523199 -0.49665099
-0.40915501 0.17523199 -0.496595
-0.46071699 0.19241901 -0.49714899
-0.44352999 0.19241901 -0.496858
-0.46071699 0.20960701 -0.497022
-0.44352999 0.20960701 -0.496786
-0.42634201 0.19241901 -0.49672699
-0.40915501 0.19241901 -0.49665901
-0.42634201 0.20960701 -0.49666801
-0.40915501 0.20960701 -0.49660799
-0.47790501 0.226794 -0.49777699
-0.47790501 0.243982 -0.497881
-0.47790501 0.26116899 -0.49787799
-0.47790501 0.278357 -0.49777499
-0.46071699 0.226794 -0.49702799
-0.44352999 0.226794 -0.49679399
-0.46071699 0.243982 -0.49710301
-0.44352999 0.243982 -0.49683699
-0.42634201 0.226794 -0.49667299
-0.40915501 0.226794 -0.49661201
-0.42634201 0.243982 -0.49670801
-0.40915501 0.243982 -0.49664199
-0.46071699 0.26116899 -0.49709901
-0.44352999 0.26116899 -0.49683401
-0.46071699 0.278357 -0.497022
-0.44352999 0.278357 -0.49678901
-0.42634201 0.26116899 -0.496705
-0.40915501 0.26116899 -0.49663901
-0.42634201 0.278357 -0.49667001
-0.40915501 0.278357 -0.49660999
-0.391967 0.15804499 -0.49669001
-0.37478 0.15804499 -0.496696
-0.391967 0.17523199 -0.49661899
-0.37478 0.17523199 -0.49662501
-0.35759199 0.15804499 -0.49665999
-0.34040499 0.15804499 -0.49665701
-0.35759199 0.17523199 -0.49659801
-0.34040499 0.17523199 -0.496593
-0.391967 0.19241901 -0.49668899
-0.37478 0.19241901 -0.496694
-0.391967 0.20960701 -0.496636
-0.37478 0.20960701 -0.49664301
-0.35759199 0.19241901 -0.49666101
-0.34040499 0.19241901 -0.496658
-0.35759199 0.20960701 -0.49661201
-0.34040499 0.20960701 -0.49660799
-0.32321799 0.15804499 -0.49671099
-0.30603001 0.15804499 -0.496645
-0.32321799 0.17523199 -0.49664399
-0.30603001 0.17523199 -0.49657601
-0.28884199 0.15804499 -0.496712
-0.27165499 0.15804499 -0.49665999
-0.28884199 0.17523199 -0.496645
-0.27165499 0.17523199 -0.49659601
-0.32321799 0.19241901 -0.49671099
-0.30603001 0.19241901 -0.496645
-0.32321799 0.20960701 -0.496656
-0.30603001 0.20960701 -0.49659601
-0.28884199 0.19241901 -0.49671301
-0.27165499 0.19241901 -0.49665999
-0.28884199 0.20960701 -0.49665701
-0.27165499 0.20960701 -0.496611
-0.391967 0.226794 -0.49664101
-0.37478 0.226794 -0.49664399
-0.391967 0.243982 -0.49667299
-0.37478 0.243982 -0.49667799
-0.35759199 0.226794 -0.49661401
-0.34040499 0.226794 -0.49661499
-0.35759199 0.243982 -0.49664399
-0.34040499 0.243982 -0.49664199
-0.391967 0.26116899 -0.49667001
-0.37478 0.26116899 -0.496676
-0.391967 0.278357 -0.496636
-0.37478 0.278357 -0.49664
-0.35759199 0.26116899 -0.49664101
-0.34040499 0.26116899 -0.496638
-0.35759199 0.278357 -0.496611
-0.34040499 0.278357 -0.49660999
-0.32321799 0.226794 -0.496663
-0.30603001 0.226794 -0.496595
-0.32321799 0.243982 -0.49669501
-0.30603001 0.243982 -0.49662599
-0.28884199 0.226794 -0.49666601
-0.27165499 0.226794 -0.49661499
-0.28884199 0.243982 -0.496696
-0.27165499 0.243982 -0.49664301
-0.32321799 0.26116899 -0.49669099
-0.30603001 0.26116899 -0.49662399
-0.32321799 0.278357 -0.496658
-0.30603001 0.278357 -0.49659199
-0.28884199 0.26116899 -0.496692
-0.27165499 0.26116899 -0.49664
-0.28884199 0.278357 -0.49665999
-0.27165499 0.278357 -0.496611
-0.25446701 0.020544499 -0.49664399
-0.23728 0.020544499 -0.49669901
-0.25446701 0.037732001 -0.496611
-0.23728 0.037732001 -0.496665
-0.220093 0.020544499 -0.496629
-0.202905 0.020544499 -0.496703
-0.220093 0.037732001 -0.4966
-0.202905 0.037732001 -0.496667
-0.25446701 0.0549195 -0.496613
-0.23728 0.0549195 -0.496667
-0.25446701 0.072107002 -0.496665
-0.23728 0.072107002 -0.496721
-0.220093 0.0549195 -0.496604
-0.202905 0.0549195 -0.49666801
-0.220093 0.072107002 -0.49665001
-0.202905 0.072107002 -0.49672401
-0.185717 0.020544499 -0.49665099
-0.16853 0.020544499 -0.49664801
-0.185717 0.037732001 -0.49662101
-0.16853 0.037732001 -0.49661699
-0.151342 0.020544499 -0.496683
-0.13415501 0.020544499 -0.49668801
-0.151342 0.037732001 -0.49664801
-0.13415501 0.037732001 -0.496654
-0.185717 0.0549195 -0.49662301
-0.16853 0.0549195 -0.49662101
-0.185717 0.072107002 -0.49667099
-0.16853 0.072107002 -0.496667
-0.151342 0.0549195 -0.49665201
-0.13415501 0.0549195 -0.49665499
-0.151342 0.072107002 -0.49670401
-0.13415501 0.072107002 -0.49671
-0.25446701 0.089294501 -0.49659699
-0.23728 0.089294501 -0.49664399
-0.25446701 0.106482 -0.49665701
-0.23728 0.106482 -0.49671501
-0.220093 0.089294501 -0.49657899
-0.202905 0.089294501 -0.49665201
-0.220093 0.106482 -0.49664801
-0.202905 0.106482 -0.49671799
-0.25446701 0.12367 -0.49660999
-0.23728 0.12367 -0.49665901
-0.25446701 0.140857 -0.49661201
-0.23728 0.140857 -0.49665901
-0.220093 0.12367 -0.49659401
-0.202905 0.12367 -0.496665
-0.220093 0.140857 -0.49659801
-0.202905 0.140857 -0.496665
-0.185717 0.089294501 -0.49660099
-0.16853 0.089294501 -0.49660099
-0.185717 0.106482 -0.496667
-0.16853 0.106482 -0.49666399
-0.151342 0.089294501 -0.49663299
-0.13415501 0.089294501 -0.49663299
-0.151342 0.106482 -0.49669999
-0.13415501 0.106482 -0.49670401
-0.185717 0.12367 -0.49661499
-0.16853 0.12367 -0.49661401
-0.185717 0.140857 -0.49661699
-0.16853 0.140857 -0.49661699
-0.151342 0.12367 -0.496645
-0.13415501 0.12367 -0.496649
-0.151342 0.140857 -0.49664801
-0.13415501 0.140857 -0.496649
-0.116967 0.020544499 -0.496654
-0.099780001 0.020544499 -0.49665001
-0.116967 0.037732001 -0.496622
-0.099780001 0.037732001 -0.496618
-0.082592502 0.020544499 -0.49670601
-0.065404996 0.020544499 -0.49663299
-0.082592502 0.037732001 -0.49667099
-0.065404996 0.037732001 -0.49660301
-0.116967 0.0549195 -0.49662301
-0.099780001 0.0549195 -0.49662
-0.116967 0.072107002 -0.49667501
-0.099780001 0.072107002 -0.49667099
-0.082592502 0.0549195 -0.49667299
-0.065404996 0.0549195 -0.49660799
-0.082592502 0.072107002 -0.496728
-0.065404996 0.072107002 -0.496654
-0.048217501 0.020544499 -0.496705
-0.031029999 0.020544499 -0.49665001
-0.048217501 0.037732001 -0.49666899
-0.031029999 0.037732001 -0.49662
-0.0138425 0.020544499 -0.496654
0.0033450101 0.020544499 -0.49668801
-0.0138425 0.037732001 -0.49662301
0.0033450101 0.037732001 -0.49665299
-0.048217501 0.0549195 -0.49667001
-0.031029999 0.0549195 -0.49662301
-0.048217501 0.072107002 -0.49672601
-0.031029999 0.072107002 -0.49667099
-0.0138425 0.0549195 -0.49662599
0.0033450101 0.0549195 -0.496656
-0.0138425 0.072107002 -0.49667299
0.0033450101 0.072107002 -0.49670801
-0.116967 0.089294501 -0.49660501
-0.099780001 0.089294501 -0.49660301
-0.116967 0.106482 -0.49666801
-0.099780001 0.106482 -0.49666399
-0.082592502 0.089294501 -0.49665001
-0.065404996 0.089294501 -0.496582
-0.082592502 0.106482 -0.49672201
-0.065404996 0.106482 -0.49665201
-0.116967 0.12367 -0.49662
-0.099780001 0.12367 -0.49661601
-0.116967 0.140857 -0.49662
-0.099780001 0.140857 -0.496618
-0.082592502 0.12367 -0.49666601
-0.065404996 0.12367 -0.49659699
-0.082592502 0.140857 -0.496665
-0.065404996 0.140857 -0.49660099
-0.048217501 0.089294501 -0.49665299
-0.031029999 0.089294501 -0.4966
-0.048217501 0.106482 -0.496719
-0.031029999 0.106482 -0.496667
-0.0138425 0.089294501 -0.49660599
0.0033450101 0.089294501 -0.49663699
-0.0138425 0.106482 -0.49667001
0.0033450101 0.106482 -0.496705
-0.048217501 0.12367 -0.49666601
-0.031029999 0.12367 -0.49661499
-0.048217501 0.140857 -0.496667
-0.031029999 0.140857 -0.49661699
-0.0138425 0.12367 -0.49661899
0.0033450101 0.12367 -0.496649
-0.0138425 0.140857 -0.496622
0.0033450101 0.140857 -0.49665201
-0.25446701 0.15804499 -0.49665901
-0.23728 0.15804499 -0.496714
-0.25446701 0.17523199 -0.49659601
-0.23728 0.17523199 -0.496645
-0.220093 0.15804499 -0.496649
-0.202905 0.15804499 -0.49671799
-0.220093 0.17523199 -0.49657699
-0.202905 0.17523199 -0.49665201
-0.25446701 0.19241901 -0.49665999
-0.23728 0.19241901 -0.496714
-0.25446701 0.20960701 -0.49660999
-0.23728 0.20960701 -0.49665901
-0.220093 0.19241901 -0.496647
-0.202905 0.19241901 -0.496719
-0.220093 0.20960701 -0.49659801
-0.202905 0.20960701 -0.496663
-0.185717 0.15804499 -0.496667
-0.16853 0.15804499 -0.496665
-0.185717 0.17523199 -0.49660099
-0.16853 0.17523199 -0.4966
-0.151342 0.15804499 -0.496701
-0.13415501 0.15804499 -0.496703
-0.151342 0.17523199 -0.496631
-0.13415501 0.17523199 -0.49663401
-0.185717 0.19241901 -0.49666601
-0.16853 0.19241901 -0.49666399
-0.185717 0.20960701 -0.49661699
-0.16853 0.20960701 -0.49661601
-0.151342 0.19241901 -0.49669999
-0.13415501 0.19241901 -0.496703
-0.151342 0.20960701 -0.496647
-0.13415501 0.20960701 -0.49664801
-0.25446701 0.226794 -0.496613
-0.23728 0.226794 -0.496667
-0.25446701 0.243982 -0.49664199
-0.23728 0.243982 -0.49669701
-0.220093 0.226794 -0.49659801
-0.202905 0.226794 -0.49666801
-0.220093 0.243982 -0.496629
-0.202905 0.243982 -0.496701
-0.25446701 0.26116899 -0.49663901
-0.23728 0.26116899 -0.49669299
-0.25446701 0.278357 -0.496609
-0.23728 0.278357 -0.49665999
-0.220093 0.26116899 -0.496627
-0.202905 0.26116899 -0.49669701
-0.220093 0.278357 -0.49659401
-0.202905 0.278357 -0.496663
-0.185717 0.226794 -0.49662101
-0.16853 0.226794 -0.49661699
-0.185717 0.243982 -0.496649
-0.16853 0.243982 -0.496647
-0.151342 0.226794 -0.496647
-0.13415501 0.226794 -0.49665499
-0.151342 0.243982 -0.496681
-0.13415501 0.243982 -0.496685
-0.185717 0.26116899 -0.49664599
-0.16853 0.26116899 -0.496645
-0.185717 0.278357 -0.49661601
-0.16853 0.278357 -0.496613
-0.151342 0.26116899 -0.49667901
-0.13415501 0.26116899 -0.496681
-0.151342 0.278357 -0.49664301
-0.13415501 0.278357 -0.496649
-0.116967 0.15804499 -0.49666801
-0.099780001 0.15804499 -0.496665
-0.116967 0.17523199 -0.49660501
-0.099780001 0.17523199 -0.496602
-0.082592502 0.15804499 -0.49671999
-0.065404996 0.15804499 -0.49665201
-0.082592502 0.17523199 -0.49665099
-0.065404996 0.17523199 -0.49658099
-0.116967 0.19241901 -0.49666899
-0.099780001 0.19241901 -0.49666601
-0.116967 0.20960701 -0.49661699
-0.099780001 0.20960701 -0.49661601
-0.082592502 0.19241901 -0.49671999
-0.065404996 0.19241901 -0.49665099
-0.082592502 0.20960701 -0.49666399
-0.065404996 0.20960701 -0.496602
-0.048217501 0.15804499 -0.49671999
-0.031029999 0.15804499 -0.49666601
-0.048217501 0.17523199 -0.49665299
-0.031029999 0.17523199 -0.49659899
-0.0138425 0.15804499 -0.49667001
0.0033450101 0.15804499 -0.496705
-0.0138425 0.17523199 -0.49660501
0.0033450101 0.17523199 -0.49663499
-0.048217501 0.19241901 -0.49671999
-0.031029999 0.19241901 -0.49666601
-0.048217501 0.20960701 -0.49666399
