# .PCD v0.7 - Point Cloud Data file format
VERSION 0.7
FIELDS x y z
SIZE 4 4 4
TYPE F F F
COUNT 1 1 1
WIDTH 1443
HEIGHT 1
VIEWPOINT 0 0 0 1 0 0 0
POINTS 1443
DATA ascii
0.140845 -0.460706 -0.49681199
0.123658 -0.44351801 -0.49685001
0.140845 -0.44351801 -0.49684301
0.089282498 -0.42633101 -0.496645
0.10647 -0.42633101 -0.496755
0.089282498 -0.409143 -0.49658301
0.10647 -0.409143 -0.496676
0.123658 -0.42633101 -0.49668801
0.140845 -0.42633101 -0.49669001
0.123658 -0.409143 -0.496613
0.140845 -0.409143 -0.49662501
0.158033 -0.47789299 -0.49724001
0.17522 -0.47789299 -0.49702099
0.192407 -0.47789299 -0.497244
0.20959499 -0.47789299 -0.49710101
0.22678301 -0.47789299 -0.49710399
0.24397001 -0.47789299 -0.497177
0.26115799 -0.47789299 -0.49716699
0.27834499 -0.47789299 -0.49709699
0.158033 -0.460706 -0.49691099
0.17522 -0.460706 -0.49673399
0.158033 -0.44351801 -0.49693599
0.17522 -0.44351801 -0.49680099
0.192407 -0.460706 -0.496914
0.20959499 -0.460706 -0.49681199
0.192407 -0.44351801 -0.49695101
0.20959499 -0.44351801 -0.496833
0.158033 -0.42633101 -0.496759
0.17522 -0.42633101 -0.49665001
0.158033 -0.409143 -0.496683
0.17522 -0.409143 -0.496584
0.192407 -0.42633101 -0.49676701
0.20959499 -0.42633101 -0.496685
0.192407 -0.409143 -0.49668601
0.20959499 -0.409143 -0.496622
0.22678301 -0.460706 -0.49681601
0.24397001 -0.460706 -0.49686
0.22678301 -0.44351801 -0.496869
0.24397001 -0.44351801 -0.496905
0.26115799 -0.460706 -0.49685401
0.27834499 -0.460706 -0.49680799
0.26115799 -0.44351801 -0.49689001
0.27834499 -0.44351801 -0.49686101
0.22678301 -0.42633101 -0.496701
0.24397001 -0.42633101 -0.496732
0.22678301 -0.409143 -0.49661601
0.24397001 -0.409143 -0.49665099
0.26115799 -0.42633101 -0.49672201
0.27834499 -0.42633101 -0.49669501
0.26115799 -0.409143 -0.496649
0.27834499 -0.409143 -0.496618
0.0205325 -0.39195499 -0.496701
0.037719999 -0.39195499 -0.496658
0.0205325 -0.37476799 -0.49669299
0.037719999 -0.37476799 -0.496654
0.054907501 -0.39195499 -0.496654
0.072094999 -0.39195499 -0.49675
0.054907501 -0.37476799 -0.496658
0.072094999 -0.37476799 -0.49674001
0.0205325 -0.35758099 -0.49664199
0.037719999 -0.35758099 -0.496611
0.0205325 -0.34039301 -0.49666399
0.037719999 -0.34039301 -0.49662301
0.054907501 -0.35758099 -0.49662
0.072094999 -0.35758099 -0.496672
0.054907501 -0.34039301 -0.49661499
0.072094999 -0.34039301 -0.49670601
0.089282498 -0.39195499 -0.496622
0.10647 -0.39195499 -0.49671701
0.089282498 -0.37476799 -0.49661699
0.10647 -0.37476799 -0.49671799
0.123658 -0.39195499 -0.49666399
0.140845 -0.39195499 -0.496658
0.123658 -0.37476799 -0.49665701
0.140845 -0.37476799 -0.496656
0.089282498 -0.35758099 -0.49657801
0.10647 -0.35758099 -0.49667099
0.089282498 -0.34039301 -0.49658999
0.10647 -0.34039301 -0.49667299
0.123658 -0.35758099 -0.49660599
0.140845 -0.35758099 -0.49661899
0.123658 -0.34039301 -0.49662799
0.140845 -0.34039301 -0.496622
0.0205325 -0.32320601 -0.49672401
0.037719999 -0.32320601 -0.49667901
0.0205325 -0.30601799 -0.49659801
0.037719999 -0.30601799 -0.49656999
0.054907501 -0.32320601 -0.49667701
0.072094999 -0.32320601 -0.49676901
0.054907501 -0.30601799 -0.49658099
0.072094999 -0.30601799 -0.496629
0.0205325 -0.288831 -0.49673399
0.037719999 -0.288831 -0.49668601
0.0205325 -0.27164301 -0.49665499
0.037719999 -0.27164301 -0.49661899
0.054907501 -0.288831 -0.49667701
0.072094999 -0.288831 -0.49678299
0.054907501 -0.27164301 -0.49661899
0.072094999 -0.27164301 -0.496696
0.089282498 -0.32320601 -0.49664199
0.10647 -0.32320601 -0.49674201
0.089282498 -0.30601799 -0.496537
0.10647 -0.30601799 -0.49662799
0.123658 -0.32320601 -0.496683
0.140845 -0.32320601 -0.49667901
0.123658 -0.30601799 -0.49656501
0.140845 -0.30601799 -0.49657899
0.089282498 -0.288831 -0.49665001
0.10647 -0.288831 -0.49674401
0.089282498 -0.27164301 -0.49658501
0.10647 -0.27164301 -0.49667299
0.123658 -0.288831 -0.496694
0.140845 -0.288831 -0.49668401
0.123658 -0.27164301 -0.49662101
0.140845 -0.27164301 -0.49662
0.158033 -0.39195499 -0.49671799
0.17522 -0.39195499 -0.496627
0.158033 -0.37476799 -0.49671799
0.17522 -0.37476799 -0.49661899
0.192407 -0.39195499 -0.496732
0.20959499 -0.39195499 -0.49664801
0.192407 -0.37476799 -0.49672601
0.20959499 -0.37476799 -0.49665099
0.158033 -0.35758099 -0.496676
0.17522 -0.35758099 -0.49657699
0.158033 -0.34039301 -0.49667501
0.17522 -0.34039301 -0.49659801
0.192407 -0.35758099 -0.496676
0.20959499 -0.35758099 -0.49661899
0.192407 -0.34039301 -0.49669099
0.20959499 -0.34039301 -0.496609
0.22678301 -0.39195499 -0.49667799
0.24397001 -0.39195499 -0.496701
0.22678301 -0.37476799 -0.49667099
0.24397001 -0.37476799 -0.496696
0.26115799 -0.39195499 -0.496687
0.27834499 -0.39195499 -0.49667099
0.26115799 -0.37476799 -0.496687
0.27834499 -0.37476799 -0.49666399
0.22678301 -0.35758099 -0.49660999
0.24397001 -0.35758099 -0.496645
0.22678301 -0.34039301 -0.49663901
0.24397001 -0.34039301 -0.49665999
0.26115799 -0.35758099 -0.496645
0.27834499 -0.35758099 -0.496611
0.26115799 -0.34039301 -0.496645
0.27834499 -0.34039301 -0.49663401
0.158033 -0.32320601 -0.49674401
0.17522 -0.32320601 -0.49664801
0.158033 -0.30601799 -0.49663299
0.17522 -0.30601799 -0.49653399
0.192407 -0.32320601 -0.496755
0.20959499 -0.32320601 -0.49667099
0.192407 -0.30601799 -0.49663299
0.20959499 -0.30601799 -0.49658
0.158033 -0.288831 -0.49674401
0.17522 -0.288831 -0.496658
0.158033 -0.27164301 -0.49667501
0.17522 -0.27164301 -0.49658799
0.192407 -0.288831 -0.49676299
0.20959499 -0.288831 -0.49667001
0.192407 -0.27164301 -0.496685
0.20959499 -0.27164301 -0.496613
0.22678301 -0.32320601 -0.496696
0.24397001 -0.32320601 -0.49672201
0.22678301 -0.30601799 -0.49656999
0.24397001 -0.30601799 -0.496602
0.26115799 -0.32320601 -0.49671099
0.27834499 -0.32320601 -0.49669001
0.26115799 -0.30601799 -0.496602
0.27834499 -0.30601799 -0.49656999
0.22678301 -0.288831 -0.49670801
0.24397001 -0.288831 -0.49673
0.22678301 -0.27164301 -0.49663201
0.24397001 -0.27164301 -0.496656
0.26115799 -0.288831 -0.496712
0.27834499 -0.288831 -0.496701
0.26115799 -0.27164301 -0.496645
0.27834499 -0.27164301 -0.49662799
0.295533 -0.47789299 -0.49711499
0.31272 -0.47789299 -0.49724799
0.32990801 -0.47789299 -0.49702099
0.34709501 -0.47789299 -0.49724001
0.364283 -0.47789299 -0.49709499
0.38146999 -0.47789299 -0.49709201
0.39865801 -0.47789299 -0.49723801
0.41584501 -0.47789299 -0.497026
0.295533 -0.460706 -0.496822
0.31272 -0.460706 -0.49691901
0.295533 -0.44351801 -0.49685001
0.31272 -0.44351801 -0.49693999
0.32990801 -0.460706 -0.496732
0.34709501 -0.460706 -0.496907
0.32990801 -0.44351801 -0.49680001
0.34709501 -0.44351801 -0.49694499
0.295533 -0.42633101 -0.496696
0.31272 -0.42633101 -0.49676299
0.295533 -0.409143 -0.49663001
0.31272 -0.409143 -0.49668601
0.32990801 -0.42633101 -0.496649
0.34709501 -0.42633101 -0.49676299
0.32990801 -0.409143 -0.496582
0.34709501 -0.409143 -0.496683
0.364283 -0.460706 -0.49680299
0.38146999 -0.460706 -0.49680799
0.364283 -0.44351801 -0.49682599
0.38146999 -0.44351801 -0.49686199
0.39865801 -0.460706 -0.49691299
0.41584501 -0.460706 -0.49674699
0.39865801 -0.44351801 -0.496959
0.41584501 -0.44351801 -0.49679399
0.364283 -0.42633101 -0.49667999
0.38146999 -0.42633101 -0.49669701
0.364283 -0.409143 -0.496618
0.38146999 -0.409143 -0.49661499
0.39865801 -0.42633101 -0.49677101
0.41584501 -0.42633101 -0.49665299
0.39865801 -0.409143 -0.496683
0.41584501 -0.409143 -0.496595
0.43303299 -0.47789299 -0.497311
0.45021999 -0.47789299 -0.49724799
0.467408 -0.47789299 -0.49726701
0.484595 -0.47789299 -0.49769399
0.43303299 -0.460706 -0.49699301
0.45021999 -0.460706 -0.49694699
0.43303299 -0.44351801 -0.49706599
0.45021999 -0.44351801 -0.49701199
0.467408 -0.460706 -0.49697599
0.484595 -0.460706 -0.49727201
0.467408 -0.44351801 -0.497024
0.484595 -0.44351801 -0.49737501
0.43303299 -0.42633101 -0.49685901
0.45021999 -0.42633101 -0.49683699
0.43303299 -0.409143 -0.49676001
0.45021999 -0.409143 -0.496759
0.467408 -0.42633101 -0.496849
0.484595 -0.42633101 -0.497118
0.467408 -0.409143 -0.49676901
0.484595 -0.409143 -0.497026
0.295533 -0.39195499 -0.49666399
0.31272 -0.39195499 -0.49672201
0.295533 -0.37476799 -0.49666101
0.31272 -0.37476799 -0.496723
0.32990801 -0.39195499 -0.49662599
0.34709501 -0.39195499 -0.49672899
0.32990801 -0.37476799 -0.496618
0.34709501 -0.37476799 -0.496723
0.295533 -0.35758099 -0.49662301
0.31272 -0.35758099 -0.49667999
0.295533 -0.34039301 -0.49662599
0.31272 -0.34039301 -0.49667799
0.32990801 -0.35758099 -0.49657601
0.34709501 -0.35758099 -0.49667299
0.32990801 -0.34039301 -0.49659699
0.34709501 -0.34039301 -0.49668899
0.364283 -0.39195499 -0.49664399
0.38146999 -0.39195499 -0.49667299
0.364283 -0.37476799 -0.496647
0.38146999 -0.37476799 -0.496665
0.39865801 -0.39195499 -0.496739
0.41584501 -0.39195499 -0.49662301
0.39865801 -0.37476799 -0.496732
0.41584501 -0.37476799 -0.49662599
0.364283 -0.35758099 -0.49661499
0.38146999 -0.35758099 -0.49660799
0.364283 -0.34039301 -0.496604
0.38146999 -0.34039301 -0.49663401
0.39865801 -0.35758099 -0.49667501
0.41584501 -0.35758099 -0.49659401
0.39865801 -0.34039301 -0.496694
0.41584501 -0.34039301 -0.49658599
0.295533 -0.32320601 -0.49668401
0.31272 -0.32320601 -0.49674699
0.295533 -0.30601799 -0.496584
0.31272 -0.30601799 -0.49663699
0.32990801 -0.32320601 -0.496647
0.34709501 -0.32320601 -0.49675199
0.32990801 -0.30601799 -0.49653399
0.34709501 -0.30601799 -0.49663001
0.295533 -0.288831 -0.49668899
0.31272 -0.288831 -0.49674699
0.295533 -0.27164301 -0.49662399
0.31272 -0.27164301 -0.496683
0.32990801 -0.288831 -0.49665499
0.34709501 -0.288831 -0.496759
0.32990801 -0.27164301 -0.49659899
0.34709501 -0.27164301 -0.496685
0.364283 -0.32320601 -0.496667
0.38146999 -0.32320601 -0.49669001
0.364283 -0.30601799 -0.49657401
0.38146999 -0.30601799 -0.49656701
0.39865801 -0.32320601 -0.49676001
0.41584501 -0.32320601 -0.496647
0.39865801 -0.30601799 -0.49663001
0.41584501 -0.30601799 -0.49655101
0.364283 -0.288831 -0.496665
0.38146999 -0.288831 -0.496701
0.364283 -0.27164301 -0.49660799
0.38146999 -0.27164301 -0.496627
0.39865801 -0.288831 -0.496768
0.41584501 -0.288831 -0.49664599
0.39865801 -0.27164301 -0.496687
0.41584501 -0.27164301 -0.49658799
0.43303299 -0.39195499 -0.49684101
0.45021999 -0.39195499 -0.49681899
0.43303299 -0.37476799 -0.49682999
0.45021999 -0.37476799 -0.49681401
0.467408 -0.39195499 -0.496811
0.484595 -0.39195499 -0.49713701
0.467408 -0.37476799 -0.49682
0.484595 -0.37476799 -0.497134
0.43303299 -0.35758099 -0.49675101
0.45021999 -0.35758099 -0.49675399
0.43303299 -0.34039301 -0.496788
0.45021999 -0.34039301 -0.49676999
0.467408 -0.35758099 -0.49677199
0.484595 -0.35758099 -0.49702701
0.467408 -0.34039301 -0.49676001
0.484595 -0.34039301 -0.49705601
0.43303299 -0.32320601 -0.496865
0.45021999 -0.32320601 -0.496849
0.43303299 -0.30601799 -0.49669901
0.45021999 -0.30601799 -0.49669799
0.467408 -0.32320601 -0.49686199
0.484595 -0.32320601 -0.49717399
0.467408 -0.30601799 -0.496692
0.484595 -0.30601799 -0.49696299
0.43303299 -0.288831 -0.49687999
0.45021999 -0.288831 -0.496856
0.43303299 -0.27164301 -0.49677601
0.45021999 -0.27164301 -0.49676299
0.467408 -0.288831 -0.49685499
0.484595 -0.288831 -0.49718601
0.467408 -0.27164301 -0.49676499
0.484595 -0.27164301 -0.49704599
0.0205325 -0.25445601 -0.49663299
0.037719999 -0.25445601 -0.49660099
0.0205325 -0.237268 -0.49673301
0.037719999 -0.237268 -0.496685
0.054907501 -0.25445601 -0.49660999
0.072094999 -0.25445601 -0.496663
0.054907501 -0.237268 -0.496676
0.072094999 -0.237268 -0.496782
0.0205325 -0.220081 -0.49661201
0.037719999 -0.220081 -0.496582
0.0205325 -0.202893 -0.49671599
0.037719999 -0.202893 -0.49667501
0.054907501 -0.220081 -0.49658599
0.072094999 -0.220081 -0.49665201
0.054907501 -0.202893 -0.49667901
0.072094999 -0.202893 -0.49675301
0.089282498 -0.25445601 -0.49656799
0.10647 -0.25445601 -0.49665999
0.089282498 -0.237268 -0.496649
0.10647 -0.237268 -0.49674401
0.123658 -0.25445601 -0.49659699
0.140845 -0.25445601 -0.496609
0.123658 -0.237268 -0.49669299
0.140845 -0.237268 -0.496683
0.089282498 -0.220081 -0.49654701
0.10647 -0.220081 -0.496636
0.089282498 -0.202893 -0.496638
0.10647 -0.202893 -0.49674299
0.123658 -0.220081 -0.496582
0.140845 -0.220081 -0.49658599
0.123658 -0.202893 -0.496674
0.140845 -0.202893 -0.49667901
0.0205325 -0.185706 -0.49667099
0.037719999 -0.185706 -0.496631
0.0205325 -0.16851801 -0.49665099
0.037719999 -0.16851801 -0.49661899
0.054907501 -0.185706 -0.49662599
0.072094999 -0.185706 -0.49671501
0.054907501 -0.16851801 -0.49662399
0.072094999 -0.16851801 -0.49669001
0.0205325 -0.15133099 -0.49667501
0.037719999 -0.15133099 -0.49664
0.0205325 -0.13414299 -0.49669701
0.037719999 -0.13414299 -0.49665701
0.054907501 -0.15133099 -0.49665001
0.072094999 -0.15133099 -0.49671301
0.054907501 -0.13414299 -0.496656
0.072094999 -0.13414299 -0.49674299
0.089282498 -0.185706 -0.49659899
0.10647 -0.185706 -0.49668401
0.089282498 -0.16851801 -0.49658501
0.10647 -0.16851801 -0.496676
0.123658 -0.185706 -0.496636
0.140845 -0.185706 -0.49663001
0.123658 -0.16851801 -0.496618
0.140845 -0.16851801 -0.496622
0.089282498 -0.15133099 -0.49660301
0.10647 -0.15133099 -0.49670699
0.089282498 -0.13414299 -0.496618
0.10647 -0.13414299 -0.49671599
0.123658 -0.15133099 -0.49663699
0.140845 -0.15133099 -0.496645
0.123658 -0.13414299 -0.49665999
0.140845 -0.13414299 -0.496656
0.158033 -0.25445601 -0.49666601
0.17522 -0.25445601 -0.49656799
0.158033 -0.237268 -0.49674401
0.17522 -0.237268 -0.496658
0.192407 -0.25445601 -0.496667
0.20959499 -0.25445601 -0.49660799
0.192407 -0.237268 -0.49676201
0.20959499 -0.237268 -0.49667001
0.158033 -0.220081 -0.496638
0.17522 -0.220081 -0.49654701
0.158033 -0.202893 -0.496746
0.17522 -0.202893 -0.49664101
0.192407 -0.220081 -0.49664399
0.20959499 -0.220081 -0.496582
0.192407 -0.202893 -0.49675101
0.20959499 -0.202893 -0.496676
0.22678301 -0.25445601 -0.49660099
0.24397001 -0.25445601 -0.49663499
0.22678301 -0.237268 -0.49670601
0.24397001 -0.237268 -0.49672899
0.26115799 -0.25445601 -0.49663499
0.27834499 -0.25445601 -0.49659899
0.26115799 -0.237268 -0.49671099
0.27834499 -0.237268 -0.49671099
0.22678301 -0.220081 -0.496591
0.24397001 -0.220081 -0.49661699
0.22678301 -0.202893 -0.496681
0.24397001 -0.202893 -0.49671701
0.26115799 -0.220081 -0.496604
0.27834499 -0.220081 -0.49661499
0.26115799 -0.202893 -0.49671099
0.27834499 -0.202893 -0.49669001
0.158033 -0.185706 -0.496685
0.17522 -0.185706 -0.496604
0.158033 -0.16851801 -0.49667799
0.17522 -0.16851801 -0.49658501
0.192407 -0.185706 -0.49669901
0.20959499 -0.185706 -0.49662
0.192407 -0.16851801 -0.496683
0.20959499 -0.16851801 -0.49662
0.158033 -0.15133099 -0.49671099
0.17522 -0.15133099 -0.49660301
0.158033 -0.13414299 -0.49671701
0.17522 -0.13414299 -0.496622
0.192407 -0.15133099 -0.49671099
0.20959499 -0.15133099 -0.49664599
0.192407 -0.13414299 -0.49672699
0.20959499 -0.13414299 -0.496649
0.22678301 -0.185706 -0.49664801
0.24397001 -0.185706 -0.49666899
0.22678301 -0.16851801 -0.49662799
0.24397001 -0.16851801 -0.49665499
0.26115799 -0.185706 -0.496656
0.27834499 -0.185706 -0.49663901
0.26115799 -0.16851801 -0.49664801
0.27834499 -0.16851801 -0.49662301
0.22678301 -0.15133099 -0.49664599
0.24397001 -0.15133099 -0.49667901
0.22678301 -0.13414299 -0.49667299
0.24397001 -0.13414299 -0.49669701
0.26115799 -0.15133099 -0.49667701
0.27834499 -0.15133099 -0.49664301
0.26115799 -0.13414299 -0.496685
0.27834499 -0.13414299 -0.49666601
0.0205325 -0.116956 -0.49665901
0.037719999 -0.116956 -0.49662301
0.0205325 -0.099767998 -0.49663901
0.037719999 -0.099767998 -0.49660701
0.054907501 -0.116956 -0.49662301
0.072094999 -0.116956 -0.49669799
0.054907501 -0.099767998 -0.49661499
0.072094999 -0.099767998 -0.49667001
0.0205325 -0.082580499 -0.496737
0.037719999 -0.082580499 -0.49669001
0.0205325 -0.065393001 -0.49661401
0.037719999 -0.065393001 -0.49658301
0.054907501 -0.082580499 -0.496681
0.072094999 -0.082580499 -0.496786
0.054907501 -0.065393001 -0.49658701
0.072094999 -0.065393001 -0.49665299
0.089282498 -0.116956 -0.49658799
0.10647 -0.116956 -0.49667701
0.089282498 -0.099767998 -0.49657401
0.10647 -0.099767998 -0.496667
0.123658 -0.116956 -0.49662399
0.140845 -0.116956 -0.49662399
0.123658 -0.099767998 -0.496604
0.140845 -0.099767998 -0.49661499
0.089282498 -0.082580499 -0.49665299
0.10647 -0.082580499 -0.496748
0.089282498 -0.065393001 -0.49654901
0.10647 -0.065393001 -0.49663699
0.123658 -0.082580499 -0.49669701
0.140845 -0.082580499 -0.496687
0.123658 -0.065393001 -0.49658301
0.140845 -0.065393001 -0.49658799
0.0205325 -0.048205499 -0.496712
0.037719999 -0.048205499 -0.496672
0.0205325 -0.031018 -0.49666399
0.037719999 -0.031018 -0.49662501
0.054907501 -0.048205499 -0.49667701
0.072094999 -0.048205499 -0.49675101
0.054907501 -0.031018 -0.49662101
0.072094999 -0.031018 -0.49670801
0.0205325 -0.0138305 -0.496658
0.037719999 -0.0138305 -0.49662501
0.0205325 0.0033569899 -0.496681
0.037719999 0.0033569899 -0.49664599
0.054907501 -0.0138305 -0.49663001
0.072094999 -0.0138305 -0.49669701
0.054907501 0.0033569899 -0.49665499
0.072094999 0.0033569899 -0.496719
0.089282498 -0.048205499 -0.49663499
0.10647 -0.048205499 -0.496739
0.089282498 -0.031018 -0.49659199
0.10647 -0.031018 -0.49667701
0.123658 -0.048205499 -0.49667099
0.140845 -0.048205499 -0.49667701
0.123658 -0.031018 -0.496629
0.140845 -0.031018 -0.49662399
0.089282498 -0.0138305 -0.49659199
0.10647 -0.0138305 -0.496683
0.089282498 0.0033569899 -0.49660799
0.10647 0.0033569899 -0.49671301
0.123658 -0.0138305 -0.49662501
0.140845 -0.0138305 -0.49662799
0.123658 0.0033569899 -0.49664301
0.140845 0.0033569899 -0.49665001
0.158033 -0.116956 -0.49667901
0.17522 -0.116956 -0.49659199
0.158033 -0.099767998 -0.496672
0.17522 -0.099767998 -0.49657401
0.192407 -0.116956 -0.49668899
0.20959499 -0.116956 -0.49661699
0.192407 -0.099767998 -0.49667299
0.20959499 -0.099767998 -0.49661401
0.158033 -0.082580499 -0.49674901
0.17522 -0.082580499 -0.49666101
0.158033 -0.065393001 -0.49663901
0.17522 -0.065393001 -0.496548
0.192407 -0.082580499 -0.496766
0.20959499 -0.082580499 -0.496674
0.192407 -0.065393001 -0.49664599
0.20959499 -0.065393001 -0.49658301
0.22678301 -0.116956 -0.49663401
0.24397001 -0.116956 -0.49665901
0.22678301 -0.099767998 -0.49660799
0.24397001 -0.099767998 -0.49664101
0.26115799 -0.116956 -0.496649
0.27834499 -0.116956 -0.496629
0.26115799 -0.099767998 -0.49664
0.27834499 -0.099767998 -0.49660799
0.22678301 -0.082580499 -0.49671
0.24397001 -0.082580499 -0.49673301
0.22678301 -0.065393001 -0.49659199
0.24397001 -0.065393001 -0.49661699
0.26115799 -0.082580499 -0.49671599
0.27834499 -0.082580499 -0.496703
0.26115799 -0.065393001 -0.496609
0.27834499 -0.065393001 -0.49658799
0.158033 -0.048205499 -0.49674299
0.17522 -0.048205499 -0.496638
0.158033 -0.031018 -0.49667799
0.17522 -0.031018 -0.49659699
0.192407 -0.048205499 -0.496748
0.20959499 -0.048205499 -0.49667299
0.192407 -0.031018 -0.496692
0.20959499 -0.031018 -0.49661401
0.158033 -0.0138305 -0.496685
0.17522 -0.0138305 -0.49659199
0.158033 0.0033569899 -0.49671599
0.17522 0.0033569899 -0.49660799
0.192407 -0.0138305 -0.49668899
0.20959499 -0.0138305 -0.49662501
0.192407 0.0033569899 -0.49671701
0.20959499 0.0033569899 -0.49665099
0.22678301 -0.048205499 -0.49667799
0.24397001 -0.048205499 -0.49671301
0.22678301 -0.031018 -0.49664101
0.24397001 -0.031018 -0.496663
0.26115799 -0.048205499 -0.49670899
0.27834499 -0.048205499 -0.496676
0.26115799 -0.031018 -0.496649
0.27834499 -0.031018 -0.49663499
0.22678301 -0.0138305 -0.49663401
0.24397001 -0.0138305 -0.49666101
0.22678301 0.0033569899 -0.49665099
0.24397001 0.0033569899 -0.496685
0.26115799 -0.0138305 -0.49665499
0.27834499 -0.0138305 -0.496629
0.26115799 0.0033569899 -0.49668199
0.27834499 0.0033569899 -0.49664801
0.295533 -0.25445601 -0.496622
0.31272 -0.25445601 -0.49664101
0.295533 -0.237268 -0.496649
0.31272 -0.237268 -0.496851
0.32990801 -0.25445601 -0.49649701
0.34709501 -0.25445601 -0.49663699
0.32990801 -0.237268 -0.49698099
0.34709501 -0.237268 -0.49687701
0.295533 -0.220081 -0.49648899
0.31272 -0.220081 -0.49693099
0.295533 -0.202893 -0.49664599
0.31272 -0.202893 -0.49684
0.364283 -0.25445601 -0.49660799
0.38146999 -0.25445601 -0.49659699
0.364283 -0.237268 -0.496638
0.38146999 -0.237268 -0.496705
0.39865801 -0.25445601 -0.49666399
0.41584501 -0.25445601 -0.49658099
0.39865801 -0.237268 -0.496766
0.41584501 -0.237268 -0.49664599
0.34709501 -0.220081 -0.49697199
0.364283 -0.220081 -0.49650201
0.38146999 -0.220081 -0.49660099
0.34709501 -0.202893 -0.496849
0.364283 -0.202893 -0.49664301
0.38146999 -0.202893 -0.49668401
0.39865801 -0.220081 -0.49664301
0.41584501 -0.220081 -0.49655399
0.39865801 -0.202893 -0.49675
0.41584501 -0.202893 -0.49665001
0.295533 -0.185706 -0.496647
0.31272 -0.185706 -0.49664801
0.295533 -0.16851801 -0.49662301
0.31272 -0.16851801 -0.49669001
0.32990801 -0.202893 -0.49693099
0.32990801 -0.185706 -0.49648699
0.34709501 -0.185706 -0.496645
0.32990801 -0.16851801 -0.496611
0.34709501 -0.16851801 -0.49669001
0.295533 -0.15133099 -0.49665099
0.31272 -0.15133099 -0.49671301
0.295533 -0.13414299 -0.49666101
0.31272 -0.13414299 -0.49671999
0.32990801 -0.15133099 -0.49659699
0.34709501 -0.15133099 -0.49670601
0.32990801 -0.13414299 -0.49662101
0.34709501 -0.13414299 -0.496723
0.364283 -0.185706 -0.496627
0.38146999 -0.185706 -0.49663901
0.364283 -0.16851801 -0.49660999
0.38146999 -0.16851801 -0.49662301
0.39865801 -0.185706 -0.49670199
0.41584501 -0.185706 -0.49659699
0.39865801 -0.16851801 -0.49668401
0.41584501 -0.16851801 -0.496593
0.364283 -0.15133099 -0.49664199
0.38146999 -0.15133099 -0.49664101
0.364283 -0.13414299 -0.49664301
0.38146999 -0.13414299 -0.496667
0.39865801 -0.15133099 -0.49671099
0.41584501 -0.15133099 -0.49661699
0.39865801 -0.13414299 -0.496732
0.41584501 -0.13414299 -0.49662101
0.43303299 -0.25445601 -0.49673799
0.45021999 -0.25445601 -0.49674001
0.43303299 -0.237268 -0.496876
0.45021999 -0.237268 -0.49685299
0.467408 -0.25445601 -0.49675301
0.484595 -0.25445601 -0.49701101
0.467408 -0.237268 -0.49685201
0.484595 -0.237268 -0.49718601
0.43303299 -0.220081 -0.49672201
0.45021999 -0.220081 -0.49671099
0.43303299 -0.202893 -0.49684599
0.45021999 -0.202893 -0.49684
0.467408 -0.220081 -0.49669501
0.484595 -0.220081 -0.49698699
0.467408 -0.202893 -0.496865
0.484595 -0.202893 -0.49715599
0.43303299 -0.185706 -0.496797
0.45021999 -0.185706 -0.49677899
0.43303299 -0.16851801 -0.49676901
0.45021999 -0.16851801 -0.49676299
0.467408 -0.185706 -0.49677399
0.484595 -0.185706 -0.49706599
0.467408 -0.16851801 -0.49676701
0.484595 -0.16851801 -0.497042
0.43303299 -0.15133099 -0.49679801
0.45021999 -0.15133099 -0.49679399
0.43303299 -0.13414299 -0.496831
0.45021999 -0.13414299 -0.49681401
0.467408 -0.15133099 -0.49680799
0.484595 -0.15133099 -0.497098
0.467408 -0.13414299 -0.49681401
0.484595 -0.13414299 -0.49713099
0.295533 -0.116956 -0.49662799
0.31272 -0.116956 -0.49668199
0.295533 -0.099767998 -0.496618
0.31272 -0.099767998 -0.49667501
0.32990801 -0.116956 -0.49658999
0.34709501 -0.116956 -0.49668401
0.32990801 -0.099767998 -0.496573
0.34709501 -0.099767998 -0.49666899
0.295533 -0.082580499 -0.49669099
0.31272 -0.082580499 -0.49675101
0.295533 -0.065393001 -0.49659199
0.31272 -0.065393001 -0.49664199
0.32990801 -0.082580499 -0.49665901
0.34709501 -0.082580499 -0.49676201
0.32990801 -0.065393001 -0.49654701
0.34709501 -0.065393001 -0.49664101
0.364283 -0.116956 -0.49661201
0.38146999 -0.116956 -0.496629
0.364283 -0.099767998 -0.49660799
0.38146999 -0.099767998 -0.496604
0.39865801 -0.116956 -0.49669001
0.41584501 -0.116956 -0.49658999
0.39865801 -0.099767998 -0.49667001
0.41584501 -0.099767998 -0.49658701
0.364283 -0.082580499 -0.49666801
0.38146999 -0.082580499 -0.496703
0.364283 -0.065393001 -0.49657699
0.38146999 -0.065393001 -0.49658701
0.39865801 -0.082580499 -0.49676999
0.41584501 -0.082580499 -0.496649
0.39865801 -0.065393001 -0.49664599
0.41584501 -0.065393001 -0.49655399
0.295533 -0.048205499 -0.496681
0.31272 -0.048205499 -0.496746
0.295533 -0.031018 -0.49662799
0.31272 -0.031018 -0.496681
0.32990801 -0.048205499 -0.496636
0.34709501 -0.048205499 -0.49674299
0.32990801 -0.031018 -0.496595
0.34709501 -0.031018 -0.49668801
0.295533 -0.0138305 -0.49663201
0.31272 -0.0138305 -0.49668801
0.295533 0.0033569899 -0.49665499
0.31272 0.0033569899 -0.496719
0.32990801 -0.0138305 -0.496591
0.34709501 -0.0138305 -0.496685
0.32990801 0.0033569899 -0.49660599
0.34709501 0.0033569899 -0.496712
0.364283 -0.048205499 -0.49666801
0.38146999 -0.048205499 -0.496674
0.364283 -0.031018 -0.496609
0.38146999 -0.031018 -0.49663499
0.39865801 -0.048205499 -0.49674699
0.41584501 -0.048205499 -0.496647
0.39865801 -0.031018 -0.49669501
0.41584501 -0.031018 -0.496589
0.364283 -0.0138305 -0.49662
0.38146999 -0.0138305 -0.496629
0.364283 0.0033569899 -0.496645
0.38146999 0.0033569899 -0.49664599
0.39865801 -0.0138305 -0.49669099
0.41584501 -0.0138305 -0.4966
0.39865801 0.0033569899 -0.49671701
0.41584501 0.0033569899 -0.496622
0.43303299 -0.116956 -0.49677801
0.45021999 -0.116956 -0.496768
0.43303299 -0.099767998 -0.496746
0.45021999 -0.099767998 -0.49674699
0.467408 -0.116956 -0.49677199
0.484595 -0.116956 -0.49705201
0.467408 -0.099767998 -0.49676099
0.484595 -0.099767998 -0.497015
0.43303299 -0.082580499 -0.49688101
0.45021999 -0.082580499 -0.496858
0.43303299 -0.065393001 -0.49672401
0.45021999 -0.065393001 -0.49671301
0.467408 -0.082580499 -0.496858
0.484595 -0.082580499 -0.497188
0.467408 -0.065393001 -0.496696
0.484595 -0.065393001 -0.49698699
0.43303299 -0.048205499 -0.496842
0.45021999 -0.048205499 -0.49683699
0.43303299 -0.031018 -0.49678701
0.45021999 -0.031018 -0.49676999
0.467408 -0.048205499 -0.49686
0.484595 -0.048205499 -0.49715099
0.467408 -0.031018 -0.49676201
0.484595 -0.031018 -0.49705699
0.43303299 -0.0138305 -0.496777
0.45021999 -0.0138305 -0.49677101
0.43303299 0.0033569899 -0.496804
0.45021999 0.0033569899 -0.49680001
0.467408 -0.0138305 -0.49678001
0.484595 -0.0138305 -0.49705401
0.467408 0.0033569899 -0.49681699
0.484595 0.0033569899 -0.49710801
-0.47790501 0.020544499 -0.49717101
-0.47790501 0.037732001 -0.49709499
-0.47790501 0.0549195 -0.49710399
-0.47790501 0.072107002 -0.49724999
-0.46071699 0.020544499 -0.49685299
-0.44352999 0.020544499 -0.49690899
-0.46071699 0.037732001 -0.496806
-0.44352999 0.037732001 -0.496847
-0.42634201 0.020544499 -0.496732
-0.40915501 0.020544499 -0.496654
-0.42634201 0.037732001 -0.49668899
-0.40915501 0.037732001 -0.496618
-0.46071699 0.0549195 -0.49681801
-0.44352999 0.0549195 -0.49683499
-0.46071699 0.072107002 -0.49692199
-0.44352999 0.072107002 -0.49698001
-0.42634201 0.0549195 -0.49668601
-0.40915501 0.0549195 -0.49662301
-0.42634201 0.072107002 -0.49678099
-0.40915501 0.072107002 -0.49668801
-0.47790501 0.089294501 -0.49702701
-0.47790501 0.106482 -0.49722999
-0.47790501 0.12367 -0.497098
-0.47790501 0.140857 -0.497107
-0.46071699 0.089294501 -0.49673799
-0.44352999 0.089294501 -0.496793
-0.46071699 0.106482 -0.496903
-0.44352999 0.106482 -0.49692899
-0.42634201 0.089294501 -0.496647
-0.40915501 0.089294501 -0.49658799
-0.42634201 0.106482 -0.49675399
-0.40915501 0.106482 -0.49667799
-0.46071699 0.12367 -0.496802
-0.44352999 0.12367 -0.49685901
-0.46071699 0.140857 -0.496815
-0.44352999 0.140857 -0.49684501
-0.42634201 0.12367 -0.496694
-0.40915501 0.12367 -0.496618
-0.42634201 0.140857 -0.49669099
-0.40915501 0.140857 -0.49662799
-0.391967 0.020544499 -0.496696
-0.37478 0.020544499 -0.49669001
-0.391967 0.037732001 -0.49665499
-0.37478 0.037732001 -0.49665201
-0.35759199 0.020544499 -0.496645
-0.34040499 0.020544499 -0.49666101
-0.35759199 0.037732001 -0.496613
-0.34040499 0.037732001 -0.49662101
-0.391967 0.0549195 -0.496647
-0.37478 0.0549195 -0.49665099
-0.391967 0.072107002 -0.49674901
-0.37478 0.072107002 -0.496739
-0.35759199 0.0549195 -0.49662101
-0.34040499 0.0549195 -0.49660999
-0.35759199 0.072107002 -0.49667701
-0.34040499 0.072107002 -0.49670699
-0.32321799 0.020544499 -0.496723
-0.30603001 0.020544499 -0.49660301
-0.32321799 0.037732001 -0.49667901
-0.30603001 0.037732001 -0.49657199
-0.28884199 0.020544499 -0.49672899
-0.27165499 0.020544499 -0.496654
-0.28884199 0.037732001 -0.496683
-0.27165499 0.037732001 -0.49661699
-0.32321799 0.0549195 -0.49667299
-0.30603001 0.0549195 -0.49658
-0.32321799 0.072107002 -0.49677101
-0.30603001 0.072107002 -0.49663699
-0.28884199 0.0549195 -0.49667001
-0.27165499 0.0549195 -0.496611
-0.28884199 0.072107002 -0.49678299
-0.27165499 0.072107002 -0.49669701
-0.391967 0.089294501 -0.49661699
-0.37478 0.089294501 -0.49661499
-0.391967 0.106482 -0.496712
-0.37478 0.106482 -0.49671301
-0.35759199 0.089294501 -0.496584
-0.34040499 0.089294501 -0.49658599
-0.35759199 0.106482 -0.496672
-0.34040499 0.106482 -0.49667001
-0.391967 0.12367 -0.49666601
-0.37478 0.12367 -0.49665901
-0.391967 0.140857 -0.496656
-0.37478 0.140857 -0.496654
-0.35759199 0.12367 -0.49660999
-0.34040499 0.12367 -0.49663001
-0.35759199 0.140857 -0.49662
-0.34040499 0.140857 -0.496622
-0.32321799 0.089294501 -0.49664301
-0.30603001 0.089294501 -0.49654299
-0.32321799 0.106482 -0.496739
-0.30603001 0.106482 -0.496629
-0.28884199 0.089294501 -0.496645
-0.27165499 0.089294501 -0.49658301
-0.28884199 0.106482 -0.49674001
-0.27165499 0.106482 -0.49666801
-0.32321799 0.12367 -0.496687
-0.30603001 0.12367 -0.49657199
-0.32321799 0.140857 -0.496681
-0.30603001 0.140857 -0.49658099
-0.28884199 0.12367 -0.496696
-0.27165499 0.12367 -0.49662399
-0.28884199 0.140857 -0.496683
-0.27165499 0.140857 -0.49661899
-0.47790501 0.15804499 -0.49723801
-0.47790501 0.17523199 -0.49702799
-0.47790501 0.19241901 -0.49724701
-0.47790501 0.20960701 -0.49710101
-0.46071699 0.15804499 -0.49691001
-0.44352999 0.15804499 -0.49693099
-0.46071699 0.17523199 -0.49673799
-0.44352999 0.17523199 -0.496806
-0.42634201 0.15804499 -0.49675599
-0.40915501 0.15804499 -0.49668401
-0.42634201 0.17523199 -0.49665299
-0.40915501 0.17523199 -0.496589
-0.46071699 0.19241901 -0.49691701
-0.44352999 0.19241901 -0.49695501
-0.46071699 0.20960701 -0.496811
-0.44352999 0.20960701 -0.49682799
-0.42634201 0.19241901 -0.49676999
-0.40915501 0.19241901 -0.49668899
-0.42634201 0.20960701 -0.49668199
-0.40915501 0.20960701 -0.49662301
-0.47790501 0.226794 -0.497109
-0.47790501 0.243982 -0.49718001
-0.47790501 0.26116899 -0.49717
-0.47790501 0.278357 -0.49710199
-0.46071699 0.226794 -0.49681899
-0.44352999 0.226794 -0.49687999
-0.46071699 0.243982 -0.49686199
-0.44352999 0.243982 -0.49690601
-0.42634201 0.226794 -0.49670699
-0.40915501 0.226794 -0.49662101
-0.42634201 0.243982 -0.496732
-0.40915501 0.243982 -0.496656
-0.46071699 0.26116899 -0.49685299
-0.44352999 0.26116899 -0.49688599
-0.46071699 0.278357 -0.49681199
-0.44352999 0.278357 -0.49687001
-0.42634201 0.26116899 -0.49671999
-0.40915501 0.26116899 -0.49665099
-0.42634201 0.278357 -0.496701
-0.40915501 0.278357 -0.49662101
-0.391967 0.15804499 -0.49671301
-0.37478 0.15804499 -0.496714
-0.391967 0.17523199 -0.49662301
-0.37478 0.17523199 -0.49661699
-0.35759199 0.15804499 -0.49667701
-0.34040499 0.15804499 -0.496672
-0.35759199 0.17523199 -0.496582
-0.34040499 0.17523199 -0.49659401
-0.391967 0.19241901 -0.49673
-0.37478 0.19241901 -0.49672401
-0.391967 0.20960701 -0.49664301
-0.37478 0.20960701 -0.496647
-0.35759199 0.19241901 -0.49667901
-0.34040499 0.19241901 -0.49669099
-0.35759199 0.20960701 -0.49662
-0.34040499 0.20960701 -0.49660599
-0.32321799 0.15804499 -0.496741
-0.30603001 0.15804499 -0.49663299
-0.32321799 0.17523199 -0.496649
-0.30603001 0.17523199 -0.49654099
-0.28884199 0.15804499 -0.49674001
-0.27165499 0.15804499 -0.49667001
-0.28884199 0.17523199 -0.496654
-0.27165499 0.17523199 -0.49658799
-0.32321799 0.19241901 -0.49675599
-0.30603001 0.19241901 -0.49663699
-0.32321799 0.20960701 -0.49666899
-0.30603001 0.20960701 -0.49658
-0.28884199 0.19241901 -0.49676099
-0.27165499 0.19241901 -0.49668401
-0.28884199 0.20960701 -0.49666601
-0.27165499 0.20960701 -0.496609
-0.391967 0.226794 -0.496681
-0.37478 0.226794 -0.496672
-0.391967 0.243982 -0.496696
-0.37478 0.243982 -0.49669299
-0.35759199 0.226794 -0.49661401
-0.34040499 0.226794 -0.49664101
-0.35759199 0.243982 -0.496649
-0.34040499 0.243982 -0.49665701
-0.391967 0.26116899 -0.49667999
-0.37478 0.26116899 -0.49668199
-0.391967 0.278357 -0.49667299
-0.37478 0.278357 -0.496665
-0.35759199 0.26116899 -0.496647
-0.34040499 0.26116899 -0.49664101
-0.35759199 0.278357 -0.496613
-0.34040499 0.278357 -0.496636
-0.32321799 0.226794 -0.49669901
-0.30603001 0.226794 -0.49657699
-0.32321799 0.243982 -0.496721
-0.30603001 0.243982 -0.49660701
-0.28884199 0.226794 -0.49671
-0.27165499 0.226794 -0.49663499
-0.28884199 0.243982 -0.49672601
-0.27165499 0.243982 -0.49665299
-0.32321799 0.26116899 -0.49670801
-0.30603001 0.26116899 -0.49660301
-0.32321799 0.278357 -0.496692
-0.30603001 0.278357 -0.496575
-0.28884199 0.26116899 -0.49670699
-0.27165499 0.26116899 -0.49664
-0.28884199 0.278357 -0.49670199
-0.27165499 0.278357 -0.49663001
-0.25446701 0.020544499 -0.496638
-0.23728 0.020544499 -0.49672699
-0.25446701 0.037732001 -0.496604
-0.23728 0.037732001 -0.49668199
-0.220093 0.020544499 -0.49661201
-0.202905 0.020544499 -0.49671799
-0.220093 0.037732001 -0.49658099
-0.202905 0.037732001 -0.496676
-0.25446701 0.0549195 -0.49660999
-0.23728 0.0549195 -0.49667001
-0.25446701 0.072107002 -0.49667001
-0.23728 0.072107002 -0.49678001
-0.220093 0.0549195 -0.49658
-0.202905 0.0549195 -0.49667901
-0.220093 0.072107002 -0.49665499
-0.202905 0.072107002 -0.496759
-0.185717 0.020544499 -0.49666601
-0.16853 0.020544499 -0.49665099
-0.185717 0.037732001 -0.49662799
-0.16853 0.037732001 -0.496618
-0.151342 0.020544499 -0.49667799
-0.13415501 0.020544499 -0.496696
-0.151342 0.037732001 -0.49664199
-0.13415501 0.037732001 -0.496656
-0.185717 0.0549195 -0.49662101
-0.16853 0.0549195 -0.49662
-0.185717 0.072107002 -0.496712
-0.16853 0.072107002 -0.49669099
-0.151342 0.0549195 -0.496649
-0.13415501 0.0549195 -0.49665099
-0.151342 0.072107002 -0.49671799
-0.13415501 0.072107002 -0.49674699
-0.25446701 0.089294501 -0.496575
-0.23728 0.089294501 -0.49664399
-0.25446701 0.106482 -0.49666199
-0.23728 0.106482 -0.496739
-0.220093 0.089294501 -0.49654701
-0.202905 0.089294501 -0.49664301
-0.220093 0.106482 -0.49663201
-0.202905 0.106482 -0.49674299
-0.25446701 0.12367 -0.49660301
-0.23728 0.12367 -0.496694
-0.25446701 0.140857 -0.49661201
-0.23728 0.140857 -0.496683
-0.220093 0.12367 -0.49658599
-0.202905 0.12367 -0.49667799
-0.220093 0.140857 -0.49658501
-0.202905 0.140857 -0.49668199
-0.185717 0.089294501 -0.49659401
-0.16853 0.089294501 -0.49658701
-0.185717 0.106482 -0.49667999
-0.16853 0.106482 -0.49667299
-0.151342 0.089294501 -0.49660799
-0.13415501 0.089294501 -0.496618
-0.151342 0.106482 -0.49670699
-0.13415501 0.106482 -0.496714
-0.185717 0.12367 -0.496636
-0.16853 0.12367 -0.49662
-0.185717 0.140857 -0.496629
-0.16853 0.140857 -0.49662101
-0.151342 0.12367 -0.49664199
-0.13415501 0.12367 -0.49666399
-0.151342 0.140857 -0.49664801
-0.13415501 0.140857 -0.496656
-0.116967 0.020544499 -0.49665999
-0.099780001 0.020544499 -0.49664399
-0.116967 0.037732001 -0.49662301
-0.099780001 0.037732001 -0.49660999
-0.082592502 0.020544499 -0.496732
-0.065404996 0.020544499 -0.49661401
-0.082592502 0.037732001 -0.49668601
-0.065404996 0.037732001 -0.496582
-0.116967 0.0549195 -0.49661899
-0.099780001 0.0549195 -0.49661499
-0.116967 0.072107002 -0.496701
-0.099780001 0.072107002 -0.49667701
-0.082592502 0.0549195 -0.496674
-0.065404996 0.0549195 -0.49658099
-0.082592502 0.072107002 -0.49678501
-0.065404996 0.072107002 -0.49665701
-0.048217501 0.020544499 -0.49671501
-0.031029999 0.020544499 -0.49665901
-0.048217501 0.037732001 -0.49667299
-0.031029999 0.037732001 -0.496622
-0.0138425 0.020544499 -0.496658
0.0033450101 0.020544499 -0.49668401
-0.0138425 0.037732001 -0.49662501
0.0033450101 0.037732001 -0.496647
-0.048217501 0.0549195 -0.496676
-0.031029999 0.0549195 -0.49661499
-0.048217501 0.072107002 -0.49675599
-0.031029999 0.072107002 -0.49670601
-0.0138425 0.0549195 -0.49662599
0.0033450101 0.0549195 -0.496654
-0.0138425 0.072107002 -0.49669701
0.0033450101 0.072107002 -0.49672401
-0.116967 0.089294501 -0.496589
-0.099780001 0.089294501 -0.49658099
-0.116967 0.106482 -0.496676
-0.099780001 0.106482 -0.49666801
-0.082592502 0.089294501 -0.496649
-0.065404996 0.089294501 -0.49654901
-0.082592502 0.106482 -0.49674401
-0.065404996 0.106482 -0.49663299
-0.116967 0.12367 -0.496627
-0.099780001 0.12367 -0.496609
-0.116967 0.140857 -0.49662501
-0.099780001 0.140857 -0.496618
-0.082592502 0.12367 -0.49669901
-0.065404996 0.12367 -0.49658799
-0.082592502 0.140857 -0.496687
-0.065404996 0.140857 -0.49658599
-0.048217501 0.089294501 -0.49664
-0.031029999 0.089294501 -0.49658701
-0.048217501 0.106482 -0.496739
-0.031029999 0.106482 -0.49667299
-0.0138425 0.089294501 -0.496593
0.0033450101 0.089294501 -0.496613
-0.0138425 0.106482 -0.49667999
0.0033450101 0.106482 -0.49671301
-0.048217501 0.12367 -0.49667501
-0.031029999 0.12367 -0.496629
-0.048217501 0.140857 -0.49667901
-0.031029999 0.140857 -0.49662301
-0.0138425 0.12367 -0.49662599
0.0033450101 0.12367 -0.496647
-0.0138425 0.140857 -0.49662799
0.0033450101 0.140857 -0.49665299
-0.25446701 0.15804499 -0.496667
-0.23728 0.15804499 -0.49674001
-0.25446701 0.17523199 -0.496575
-0.23728 0.17523199 -0.49665299
-0.220093 0.15804499 -0.49663299
-0.202905 0.15804499 -0.49674699
-0.220093 0.17523199 -0.49654901
-0.202905 0.17523199 -0.49664399
-0.25446701 0.19241901 -0.49667099
-0.23728 0.19241901 -0.49676001
-0.25446701 0.20960701 -0.496609
-0.23728 0.20960701 -0.49666601
-0.220093 0.19241901 -0.49664399
-0.202905 0.19241901 -0.49675399
-0.220093 0.20960701 -0.49657801
-0.202905 0.20960701 -0.49667701
-0.185717 0.15804499 -0.496681
-0.16853 0.15804499 -0.49667501
-0.185717 0.17523199 -0.49659899
-0.16853 0.17523199 -0.49658599
-0.151342 0.15804499 -0.49671099
-0.13415501 0.15804499 -0.496714
-0.151342 0.17523199 -0.49660701
-0.13415501 0.17523199 -0.49662301
-0.185717 0.19241901 -0.49669701
-0.16853 0.19241901 -0.49668199
-0.185717 0.20960701 -0.49661699
-0.16853 0.20960701 -0.49661699
-0.151342 0.19241901 -0.496714
-0.13415501 0.19241901 -0.496728
-0.151342 0.20960701 -0.49664599
-0.13415501 0.20960701 -0.49664599
-0.25446701 0.226794 -0.49660701
-0.23728 0.226794 -0.49670699
-0.25446701 0.243982 -0.49664
-0.23728 0.243982 -0.49672499
-0.220093 0.226794 -0.49659601
-0.202905 0.226794 -0.496685
-0.220093 0.243982 -0.49661601
-0.202905 0.243982 -0.49671999
-0.25446701 0.26116899 -0.49663699
-0.23728 0.26116899 -0.496705
-0.25446701 0.278357 -0.49660301
-0.23728 0.278357 -0.496712
-0.220093 0.26116899 -0.4966
-0.202905 0.26116899 -0.49671099
-0.220093 0.278357 -0.49662
-0.202905 0.278357 -0.49669299
-0.185717 0.226794 -0.49664801
-0.16853 0.226794 -0.49663001
-0.185717 0.243982 -0.496665
-0.16853 0.243982 -0.496654
-0.151342 0.226794 -0.496649
-0.13415501 0.226794 -0.49667901
-0.151342 0.243982 -0.49668199
-0.13415501 0.243982 -0.496696
-0.185717 0.26116899 -0.49665201
-0.16853 0.26116899 -0.49664599
-0.185717 0.278357 -0.49663901
-0.16853 0.278357 -0.49662501
-0.151342 0.26116899 -0.49667701
-0.13415501 0.26116899 -0.49668199
-0.151342 0.278357 -0.49664599
-0.13415501 0.278357 -0.49667001
-0.116967 0.15804499 -0.49667799
-0.099780001 0.15804499 -0.49667299
-0.116967 0.17523199 -0.496593
-0.099780001 0.17523199 -0.49658
-0.082592502 0.15804499 -0.49674401
-0.065404996 0.15804499 -0.49663499
-0.082592502 0.17523199 -0.49665701
-0.065404996 0.17523199 -0.49654999
-0.116967 0.19241901 -0.49669001
-0.099780001 0.19241901 -0.49667701
-0.116967 0.20960701 -0.49661601
-0.099780001 0.20960701 -0.49661401
-0.082592502 0.19241901 -0.49676499
-0.065404996 0.19241901 -0.496645
-0.082592502 0.20960701 -0.49667001
-0.065404996 0.20960701 -0.49657899
-0.048217501 0.15804499 -0.49674401
-0.031029999 0.15804499 -0.496674
-0.048217501 0.17523199 -0.49664101
-0.031029999 0.17523199 -0.49659199
-0.0138425 0.15804499 -0.49668199
0.0033450101 0.15804499 -0.49671599
-0.0138425 0.17523199 -0.496593
0.0033450101 0.17523199 -0.49661201
-0.048217501 0.19241901 -0.49675101
-0.031029999 0.19241901 -0.49669001
-0.048217501 0.20960701 -0.496674
-0.031029999 0.20960701 -0.496611
-0.0138425 0.19241901 -0.49668899
0.0033450101 0.19241901 -0.49671999
-0.0138425 0.20960701 -0.49662399
0.0033450101 0.20960701 -0.49665099
-0.116967 0.226794 -0.496638
-0.099780001 0.226794 -0.496613
-0.116967 0.243982 -0.49665901
-0.099780001 0.243982 -0.49664599
-0.082592502 0.226794 -0.496712
-0.065404996 0.226794 -0.49659801
-0.082592502 0.243982 -0.49672899
-0.065404996 0.243982 -0.49661601
-0.116967 0.26116899 -0.496647
-0.099780001 0.26116899 -0.49664101
-0.116967 0.278357 -0.49663201
-0.099780001 0.278357 -0.49661201
-0.082592502 0.26116899 -0.49671099
-0.065404996 0.26116899 -0.49660501
-0.082592502 0.278357 -0.49670401
-0.065404996 0.278357 -0.496593
-0.048217501 0.226794 -0.49668199
-0.031029999 0.226794 -0.49664101
-0.048217501 0.243982 -0.49671599
-0.031029999 0.243982 -0.496658
-0.0138425 0.226794 -0.49663499
0.0033450101 0.226794 -0.49665499
-0.0138425 0.243982 -0.49666101
0.0033450101 0.243982 -0.496687
-0.048217501 0.26116899 -0.49670899
-0.031029999 0.26116899 -0.49664399
-0.048217501 0.278357 -0.49667901
-0.031029999 0.278357 -0.49663499
-0.0138425 0.26116899 -0.49665299
0.0033450101 0.26116899 -0.496683
-0.0138425 0.278357 -0.49663001
0.0033450101 0.278357 -0.49665099
-0.47790501 0.29554501 -0.49711701
-0.47790501 0.31273201 -0.49724799
-0.47790501 0.32991999 -0.49702701
-0.47790501 0.34710699 -0.497242
-0.46071699 0.29554501 -0.49682501
-0.44352999 0.29554501 -0.49685201
-0.46071699 0.31273201 -0.49691701
-0.44352999 0.31273201 -0.49693599
-0.42634201 0.29554501 -0.49669701
-0.40915501 0.29554501 -0.49663299
-0.42634201 0.31273201 -0.49676099
-0.40915501 0.31273201 -0.496687
-0.46071699 0.32991999 -0.49673599
-0.44352999 0.32991999 -0.49680501
-0.46071699 0.34710699 -0.49691001
-0.44352999 0.34710699 -0.49695
-0.42634201 0.32991999 -0.49665201
-0.40915501 0.32991999 -0.49658799
-0.42634201 0.34710699 -0.496766
-0.40915501 0.34710699 -0.49668601
-0.47790501 0.36429501 -0.49709499
-0.47790501 0.38148201 -0.497098
-0.47790501 0.398669 -0.49724099
-0.47790501 0.41585699 -0.49702701
-0.46071699 0.36429501 -0.496802
-0.44352999 0.36429501 -0.49682
-0.46071699 0.38148201 -0.496811
-0.44352999 0.38148201 -0.496869
-0.42634201 0.36429501 -0.49667701
-0.40915501 0.36429501 -0.496618
-0.42634201 0.38148201 -0.49669999
-0.40915501 0.38148201 -0.49662
-0.46071699 0.398669 -0.49691501
-0.44352999 0.398669 -0.49696001
-0.46071699 0.41585699 -0.49674499
-0.44352999 0.41585699 -0.496786
-0.42634201 0.398669 -0.49677199
-0.40915501 0.398669 -0.49668801
-0.42634201 0.41585699 -0.496649
-0.40915501 0.41585699 -0.49659699
-0.391967 0.29554501 -0.49666199
-0.37478 0.29554501 -0.49665999
-0.391967 0.31273201 -0.49671599
-0.37478 0.31273201 -0.49671799
-0.35759199 0.29554501 -0.49662501
-0.34040499 0.29554501 -0.496627
-0.35759199 0.31273201 -0.49667999
-0.34040499 0.31273201 -0.49667501
-0.391967 0.32991999 -0.496622
-0.37478 0.32991999 -0.49661699
-0.391967 0.34710699 -0.496728
-0.37478 0.34710699 -0.49672201
-0.35759199 0.32991999 -0.49658099
-0.34040499 0.32991999 -0.49659401
-0.35759199 0.34710699 -0.496676
-0.34040499 0.34710699 -0.49668899
-0.32321799 0.29554501 -0.49668601
-0.30603001 0.29554501 -0.49658599
-0.32321799 0.31273201 -0.49674499
-0.30603001 0.31273201 -0.49663699
-0.28884199 0.29554501 -0.49668899
-0.27165499 0.29554501 -0.496622
-0.28884199 0.31273201 -0.49674299
-0.27165499 0.31273201 -0.49667799
-0.32321799 0.32991999 -0.49664801
-0.30603001 0.32991999 -0.49654099
-0.32321799 0.34710699 -0.49675301
-0.30603001 0.34710699 -0.49663401
-0.28884199 0.32991999 -0.49665099
-0.27165499 0.32991999 -0.4966
-0.28884199 0.34710699 -0.49675801
-0.27165499 0.34710699 -0.496685
-0.391967 0.36429501 -0.496638
-0.37478 0.36429501 -0.49664301
-0.391967 0.38148201 -0.496672
-0.37478 0.38148201 -0.496665
-0.35759199 0.36429501 -0.49661601
-0.34040499 0.36429501 -0.49660099
-0.35759199 0.38148201 -0.49661201
-0.34040499 0.38148201 -0.49663401
-0.391967 0.398669 -0.49673599
-0.37478 0.398669 -0.49672899
-0.391967 0.41585699 -0.49661401
-0.37478 0.41585699 -0.49661899
-0.35759199 0.398669 -0.49667799
-0.34040499 0.398669 -0.49669299
-0.35759199 0.41585699 -0.49659601
-0.34040499 0.41585699 -0.49657899
-0.32321799 0.36429501 -0.49666399
-0.30603001 0.36429501 -0.49657401
-0.32321799 0.38148201 -0.496692
-0.30603001 0.38148201 -0.496573
-0.28884199 0.36429501 -0.49666101
-0.27165499 0.36429501 -0.49660301
-0.28884199 0.38148201 -0.496701
-0.27165499 0.38148201 -0.49662799
-0.32321799 0.398669 -0.49676001
-0.30603001 0.398669 -0.49663499
-0.32321799 0.41585699 -0.49664199
-0.30603001 0.41585699 -0.49655101
-0.28884199 0.398669 -0.496766
-0.27165499 0.398669 -0.496685
-0.28884199 0.41585699 -0.496638
-0.27165499 0.41585699 -0.49658099
-0.47790501 0.43304399 -0.49731499
-0.47790501 0.450232 -0.497251
-0.47790501 0.46742001 -0.49726701
-0.47790501 0.48460701 -0.49769601
-0.46071699 0.43304399 -0.496995
-0.44352999 0.43304399 -0.49707401
-0.46071699 0.450232 -0.496952
-0.44352999 0.450232 -0.49701601
-0.42634201 0.43304399 -0.49686399
-0.40915501 0.43304399 -0.496766
-0.42634201 0.450232 -0.496838
-0.40915501 0.450232 -0.496766
-0.46071699 0.46742001 -0.49697101
-0.44352999 0.46742001 -0.49701801
-0.46071699 0.48460701 -0.497278
-0.44352999 0.48460701 -0.49738601
-0.42634201 0.46742001 -0.49684599
-0.40915501 0.46742001 -0.49676701
-0.42634201 0.48460701 -0.497125
-0.40915501 0.48460701 -0.49703601
-0.391967 0.43304399 -0.49684101
-0.37478 0.43304399 -0.49682999
-0.391967 0.450232 -0.49681699
-0.37478 0.450232 -0.496813
-0.35759199 0.43304399 -0.49675599
-0.34040499 0.43304399 -0.496788
-0.35759199 0.450232 -0.49676001
-0.34040499 0.450232 -0.496768
-0.391967 0.46742001 -0.49680501
-0.37478 0.46742001 -0.496813
-0.391967 0.48460701 -0.497141
-0.37478 0.48460701 -0.49713799
-0.35759199 0.46742001 -0.49676999
-0.34040499 0.46742001 -0.496757
-0.35759199 0.48460701 -0.49703601
-0.34040499 0.48460701 -0.497058
-0.32321799 0.43304399 -0.496867
-0.30603001 0.43304399 -0.49670801
-0.32321799 0.450232 -0.496851
-0.30603001 0.450232 -0.49670601
-0.28884199 0.43304399 -0.49687901
-0.27165499 0.43304399 -0.496777
-0.28884199 0.450232 -0.49685401
-0.27165499 0.450232 -0.49676201
-0.32321799 0.46742001 -0.49685699
-0.30603001 0.46742001 -0.49669001
-0.32321799 0.48460701 -0.49718001
-0.30603001 0.48460701 -0.496975
-0.28884199 0.46742001 -0.49685001
-0.27165499 0.46742001 -0.496759
-0.28884199 0.48460701 -0.49719101
-0.27165499 0.48460701 -0.49704999
-0.25446701 0.29554501 -0.49662599
-0.23728 0.29554501 -0.496647
-0.25446701 0.31273201 -0.49664199
-0.23728 0.31273201 -0.49684799
-0.220093 0.29554501 -0.49648699
-0.202905 0.29554501 -0.496649
-0.220093 0.31273201 -0.49692601
-0.202905 0.31273201 -0.49683899
-0.25446701 0.32991999 -0.496501
-0.23728 0.32991999 -0.49698001
-0.25446701 0.34710699 -0.49664
-0.23728 0.34710699 -0.496876
-0.185717 0.29554501 -0.496645
-0.16853 0.29554501 -0.496622
-0.185717 0.31273201 -0.49664599
-0.16853 0.31273201 -0.49668801
-0.151342 0.29554501 -0.496654
-0.13415501 0.29554501 -0.49666101
-0.151342 0.31273201 -0.49671301
-0.13415501 0.31273201 -0.49671799
-0.202905 0.32991999 -0.49693099
-0.185717 0.32991999 -0.496488
-0.16853 0.32991999 -0.49661201
-0.202905 0.34710699 -0.49685001
-0.185717 0.34710699 -0.49664599
-0.16853 0.34710699 -0.49669001
-0.151342 0.32991999 -0.49660099
-0.13415501 0.32991999 -0.49662301
-0.151342 0.34710699 -0.49670899
-0.13415501 0.34710699 -0.49672499
-0.25446701 0.36429501 -0.496609
-0.23728 0.36429501 -0.49663499
-0.25446701 0.38148201 -0.49660301
-0.23728 0.38148201 -0.49670199
-0.220093 0.34710699 -0.49696901
-0.220093 0.36429501 -0.49649799
-0.202905 0.36429501 -0.49664301
-0.220093 0.38148201 -0.496602
-0.202905 0.38148201 -0.496685
-0.25446701 0.398669 -0.49666899
-0.23728 0.398669 -0.49676201
