# .PCD v0.7 - Point Cloud Data file format
VERSION 0.7
FIELDS x y z
SIZE 4 4 4
TYPE F F F
COUNT 1 1 1
WIDTH 1407
HEIGHT 1
VIEWPOINT 0 0 0 1 0 0 0
POINTS 1407
DATA ascii
-0.34040499 -0.0052367402 -0.49669099
-0.34899899 0.0033569899 -0.496631
-0.34040499 0.0033569899 -0.49667099
-0.33181101 -0.0567993 -0.496681
-0.32321799 -0.0567993 -0.49669799
-0.33181101 -0.048205499 -0.49667701
-0.32321799 -0.048205499 -0.49669501
-0.31462401 -0.0567993 -0.49669999
-0.30603001 -0.0567993 -0.496654
-0.31462401 -0.048205499 -0.49669701
-0.30603001 -0.048205499 -0.496647
-0.33181101 -0.039611802 -0.49667099
-0.32321799 -0.039611802 -0.49668899
-0.33181101 -0.031018 -0.49667701
-0.32321799 -0.031018 -0.496694
-0.31462401 -0.039611802 -0.49669099
-0.30603001 -0.039611802 -0.49664
-0.31462401 -0.031018 -0.496696
-0.30603001 -0.031018 -0.49665099
-0.297436 -0.0567993 -0.496696
-0.28884199 -0.0567993 -0.496692
-0.297436 -0.048205499 -0.496692
-0.28884199 -0.048205499 -0.49668899
-0.280249 -0.0567993 -0.49669299
-0.27165499 -0.0567993 -0.49669701
-0.280249 -0.048205499 -0.49669001
-0.27165499 -0.048205499 -0.49669299
-0.297436 -0.039611802 -0.496687
-0.28884199 -0.039611802 -0.496683
-0.297436 -0.031018 -0.49669299
-0.28884199 -0.031018 -0.49668801
-0.280249 -0.039611802 -0.496683
-0.27165499 -0.039611802 -0.49668801
-0.280249 -0.031018 -0.49668899
-0.27165499 -0.031018 -0.496694
-0.33181101 -0.022424299 -0.49663201
-0.32321799 -0.022424299 -0.49665299
-0.33181101 -0.0138305 -0.496685
-0.32321799 -0.0138305 -0.496701
-0.31462401 -0.022424299 -0.49665701
-0.30603001 -0.022424299 -0.49659699
-0.31462401 -0.0138305 -0.496703
-0.30603001 -0.0138305 -0.496658
-0.33181101 -0.0052367402 -0.49668401
-0.32321799 -0.0052367402 -0.496701
-0.33181101 0.0033569899 -0.49665999
-0.32321799 0.0033569899 -0.49667901
-0.31462401 -0.0052367402 -0.49670199
-0.30603001 -0.0052367402 -0.49665499
-0.31462401 0.0033569899 -0.49668199
-0.30603001 0.0033569899 -0.49662799
-0.297436 -0.022424299 -0.49665299
-0.28884199 -0.022424299 -0.496645
-0.297436 -0.0138305 -0.49669999
-0.28884199 -0.0138305 -0.496696
-0.280249 -0.022424299 -0.496645
-0.27165499 -0.022424299 -0.496654
-0.280249 -0.0138305 -0.49669701
-0.27165499 -0.0138305 -0.49669999
-0.297436 -0.0052367402 -0.49669799
-0.28884199 -0.0052367402 -0.49669501
-0.297436 0.0033569899 -0.49667799
-0.28884199 0.0033569899 -0.496672
-0.280249 -0.0052367402 -0.496696
-0.27165499 -0.0052367402 -0.49669901
-0.280249 0.0033569899 -0.49667299
-0.27165499 0.0033569899 -0.49667901
-0.26306099 -0.26304901 -0.496595
-0.25446701 -0.26304901 -0.49665499
-0.26306099 -0.25445601 -0.49665499
-0.25446701 -0.25445601 -0.49669999
-0.245874 -0.26304901 -0.49665001
-0.23728 -0.26304901 -0.496631
-0.245874 -0.25445601 -0.49669901
-0.23728 -0.25445601 -0.49668401
-0.26306099 -0.24586201 -0.49665001
-0.25446701 -0.24586201 -0.49669901
-0.26306099 -0.237268 -0.49663201
-0.25446701 -0.237268 -0.49668401
-0.245874 -0.24586201 -0.49669901
-0.23728 -0.24586201 -0.496683
-0.245874 -0.237268 -0.496683
-0.23728 -0.237268 -0.49666601
-0.228686 -0.26304901 -0.49664801
-0.220093 -0.26304901 -0.4966
-0.228686 -0.25445601 -0.49669299
-0.220093 -0.25445601 -0.49665999
-0.21149901 -0.26304901 -0.49665901
-0.202905 -0.26304901 -0.49665701
-0.21149901 -0.25445601 -0.49670401
-0.202905 -0.25445601 -0.49670401
-0.228686 -0.24586201 -0.49669099
-0.220093 -0.24586201 -0.496656
-0.228686 -0.237268 -0.49667701
-0.220093 -0.237268 -0.49663699
-0.21149901 -0.24586201 -0.49670401
-0.202905 -0.24586201 -0.49670401
-0.21149901 -0.237268 -0.49668899
-0.202905 -0.237268 -0.49668899
-0.26306099 -0.22867399 -0.49664801
-0.25446701 -0.22867399 -0.496694
-0.26306099 -0.220081 -0.4966
-0.25446701 -0.220081 -0.49665999
-0.245874 -0.22867399 -0.49669099
-0.23728 -0.22867399 -0.49667701
-0.245874 -0.220081 -0.496656
-0.23728 -0.220081 -0.49663699
-0.26306099 -0.211487 -0.49665901
-0.25446701 -0.211487 -0.49670401
-0.26306099 -0.202893 -0.49665701
-0.25446701 -0.202893 -0.49670401
-0.245874 -0.211487 -0.49670401
-0.23728 -0.211487 -0.49668899
-0.245874 -0.202893 -0.49670401
-0.23728 -0.202893 -0.49668899
-0.228686 -0.22867399 -0.49668801
-0.220093 -0.22867399 -0.49665201
-0.228686 -0.220081 -0.49665299
-0.220093 -0.220081 -0.49660599
-0.21149901 -0.22867399 -0.49669799
-0.202905 -0.22867399 -0.496696
-0.21149901 -0.220081 -0.49666399
-0.202905 -0.220081 -0.49666199
-0.228686 -0.211487 -0.49669701
-0.220093 -0.211487 -0.49666399
-0.228686 -0.202893 -0.496696
-0.220093 -0.202893 -0.49666199
-0.21149901 -0.211487 -0.49670899
-0.202905 -0.211487 -0.49670899
-0.21149901 -0.202893 -0.49670899
-0.202905 -0.202893 -0.49670899
-0.19431099 -0.26304901 -0.49661899
-0.185717 -0.26304901 -0.496645
-0.19431099 -0.25445601 -0.49667501
-0.185717 -0.25445601 -0.49669099
-0.17712399 -0.26304901 -0.49660999
-0.16853 -0.26304901 -0.49665901
-0.17712399 -0.25445601 -0.49666801
-0.16853 -0.25445601 -0.496705
-0.19431099 -0.24586201 -0.496672
-0.185717 -0.24586201 -0.49668899
-0.19431099 -0.237268 -0.496654
-0.185717 -0.237268 -0.496674
-0.17712399 -0.24586201 -0.49666399
-0.16853 -0.24586201 -0.496705
-0.17712399 -0.237268 -0.49664599
-0.16853 -0.237268 -0.49669001
-0.159936 -0.26304901 -0.49665999
-0.151342 -0.26304901 -0.49660701
-0.159936 -0.25445601 -0.49670601
-0.151342 -0.25445601 -0.49666601
-0.142749 -0.26304901 -0.496647
-0.13415501 -0.26304901 -0.49662399
-0.142749 -0.25445601 -0.49669299
-0.13415501 -0.25445601 -0.49667901
-0.159936 -0.24586201 -0.49670601
-0.151342 -0.24586201 -0.49666199
-0.159936 -0.237268 -0.49669099
-0.151342 -0.237268 -0.49664399
-0.142749 -0.24586201 -0.49669099
-0.13415501 -0.24586201 -0.49667701
-0.142749 -0.237268 -0.496676
-0.13415501 -0.237268 -0.49665901
-0.19431099 -0.22867399 -0.496667
-0.185717 -0.22867399 -0.49668601
-0.19431099 -0.220081 -0.49662501
-0.185717 -0.220081 -0.49665001
-0.17712399 -0.22867399 -0.49665999
-0.16853 -0.22867399 -0.49669799
-0.17712399 -0.220081 -0.49661601
-0.16853 -0.220081 -0.496665
-0.19431099 -0.211487 -0.49667901
-0.185717 -0.211487 -0.49669501
-0.19431099 -0.202893 -0.49667799
-0.185717 -0.202893 -0.496694
-0.17712399 -0.211487 -0.496672
-0.16853 -0.211487 -0.49671
-0.17712399 -0.202893 -0.49667099
-0.16853 -0.202893 -0.49671099
-0.159936 -0.22867399 -0.49669901
-0.151342 -0.22867399 -0.496658
-0.159936 -0.220081 -0.496665
-0.151342 -0.220081 -0.496613
-0.142749 -0.22867399 -0.49668801
-0.13415501 -0.22867399 -0.496672
-0.142749 -0.220081 -0.49665201
-0.13415501 -0.220081 -0.496629
-0.159936 -0.211487 -0.49671099
-0.151342 -0.211487 -0.49667001
-0.159936 -0.202893 -0.49671099
-0.151342 -0.202893 -0.49666899
-0.142749 -0.211487 -0.49669799
-0.13415501 -0.211487 -0.49668401
-0.142749 -0.202893 -0.496696
-0.13415501 -0.202893 -0.496683
-0.26306099 -0.194299 -0.49661899
-0.25446701 -0.194299 -0.49667501
-0.26306099 -0.185706 -0.496645
-0.25446701 -0.185706 -0.49669099
-0.245874 -0.194299 -0.496672
-0.23728 -0.194299 -0.496654
-0.245874 -0.185706 -0.49668899
-0.23728 -0.185706 -0.496674
-0.26306099 -0.177112 -0.49660999
-0.25446701 -0.177112 -0.49666801
-0.26306099 -0.16851801 -0.49665901
-0.25446701 -0.16851801 -0.496705
-0.245874 -0.177112 -0.49666399
-0.23728 -0.177112 -0.49664599
-0.245874 -0.16851801 -0.496705
-0.23728 -0.16851801 -0.49669001
-0.228686 -0.194299 -0.496667
-0.220093 -0.194299 -0.49662501
-0.228686 -0.185706 -0.49668601
-0.220093 -0.185706 -0.49665001
-0.21149901 -0.194299 -0.49667901
-0.202905 -0.194299 -0.49667799
-0.21149901 -0.185706 -0.49669501
-0.202905 -0.185706 -0.496694
-0.228686 -0.177112 -0.49665999
-0.220093 -0.177112 -0.49661601
-0.228686 -0.16851801 -0.49669901
-0.220093 -0.16851801 -0.496665
-0.21149901 -0.177112 -0.496672
-0.202905 -0.177112 -0.49667099
-0.21149901 -0.16851801 -0.49671099
-0.202905 -0.16851801 -0.49671099
-0.26306099 -0.159924 -0.49665999
-0.25446701 -0.159924 -0.49670601
-0.26306099 -0.15133099 -0.49660701
-0.25446701 -0.15133099 -0.49666601
-0.245874 -0.159924 -0.49670601
-0.23728 -0.159924 -0.49669099
-0.245874 -0.15133099 -0.49666199
-0.23728 -0.15133099 -0.49664399
-0.26306099 -0.142737 -0.496647
-0.25446701 -0.142737 -0.496694
-0.26306099 -0.13414299 -0.49662399
-0.25446701 -0.13414299 -0.49667901
-0.245874 -0.142737 -0.49669099
-0.23728 -0.142737 -0.496676
-0.245874 -0.13414299 -0.49667701
-0.23728 -0.13414299 -0.49665901
-0.228686 -0.159924 -0.49669901
-0.220093 -0.159924 -0.496665
-0.228686 -0.15133099 -0.49665901
-0.220093 -0.15133099 -0.496613
-0.21149901 -0.159924 -0.49671099
-0.202905 -0.159924 -0.49671099
-0.21149901 -0.15133099 -0.49667001
-0.202905 -0.15133099 -0.49666899
-0.228686 -0.142737 -0.49668801
-0.220093 -0.142737 -0.49665201
-0.228686 -0.13414299 -0.496672
-0.220093 -0.13414299 -0.496629
-0.21149901 -0.142737 -0.49669799
-0.202905 -0.142737 -0.496696
-0.21149901 -0.13414299 -0.49668401
-0.202905 -0.13414299 -0.496683
-0.19431099 -0.194299 -0.49664199
-0.185717 -0.194299 -0.496665
-0.19431099 -0.185706 -0.496665
-0.185717 -0.185706 -0.49668401
-0.17712399 -0.194299 -0.49663401
-0.16853 -0.194299 -0.49667999
-0.17712399 -0.185706 -0.496658
-0.16853 -0.185706 -0.496696
-0.19431099 -0.177112 -0.49663401
-0.185717 -0.177112 -0.496658
-0.19431099 -0.16851801 -0.49667999
-0.185717 -0.16851801 -0.496696
-0.17712399 -0.177112 -0.49662501
-0.16853 -0.177112 -0.49667299
-0.17712399 -0.16851801 -0.49667299
-0.16853 -0.16851801 -0.496712
-0.159936 -0.194299 -0.496681
-0.151342 -0.194299 -0.49663201
-0.159936 -0.185706 -0.49669701
-0.151342 -0.185706 -0.496656
-0.142749 -0.194299 -0.496667
-0.13415501 -0.194299 -0.496647
-0.142749 -0.185706 -0.49668601
-0.13415501 -0.185706 -0.49666899
-0.159936 -0.177112 -0.496674
-0.151342 -0.177112 -0.49662301
-0.159936 -0.16851801 -0.49671301
-0.151342 -0.16851801 -0.49667099
-0.142749 -0.177112 -0.49665999
-0.13415501 -0.177112 -0.49663901
-0.142749 -0.16851801 -0.49669901
-0.13415501 -0.16851801 -0.496685
-0.19431099 -0.159924 -0.496681
-0.185717 -0.159924 -0.49669701
-0.19431099 -0.15133099 -0.49663201
-0.185717 -0.15133099 -0.496656
-0.17712399 -0.159924 -0.496674
-0.16853 -0.159924 -0.49671301
-0.17712399 -0.15133099 -0.49662301
-0.16853 -0.15133099 -0.49667099
-0.19431099 -0.142737 -0.496667
-0.185717 -0.142737 -0.49668601
-0.19431099 -0.13414299 -0.496647
-0.185717 -0.13414299 -0.49666899
-0.17712399 -0.142737 -0.49665999
-0.16853 -0.142737 -0.49669901
-0.17712399 -0.13414299 -0.49663901
-0.16853 -0.13414299 -0.496685
-0.159936 -0.159924 -0.49671301
-0.151342 -0.159924 -0.496672
-0.159936 -0.15133099 -0.496672
-0.151342 -0.15133099 -0.49662
-0.142749 -0.159924 -0.49669901
-0.13415501 -0.159924 -0.49668601
-0.142749 -0.15133099 -0.496658
-0.13415501 -0.15133099 -0.49663699
-0.159936 -0.142737 -0.49669901
-0.151342 -0.142737 -0.496658
-0.159936 -0.13414299 -0.49668601
-0.151342 -0.13414299 -0.49663699
-0.142749 -0.142737 -0.49668899
-0.13415501 -0.142737 -0.49667099
-0.142749 -0.13414299 -0.49667099
-0.13415501 -0.13414299 -0.49665299
-0.125561 -0.26304901 -0.49665701
-0.116967 -0.26304901 -0.49665901
-0.125561 -0.25445601 -0.49670401
-0.116967 -0.25445601 -0.496705
-0.108374 -0.26304901 -0.49659899
-0.099780001 -0.26304901 -0.49665001
-0.108374 -0.25445601 -0.49665901
-0.099780001 -0.25445601 -0.496696
-0.125561 -0.24586201 -0.49670401
-0.116967 -0.24586201 -0.49670401
-0.125561 -0.237268 -0.49668899
-0.116967 -0.237268 -0.49669001
-0.108374 -0.24586201 -0.49665499
-0.099780001 -0.24586201 -0.496694
-0.108374 -0.237268 -0.496636
-0.099780001 -0.237268 -0.49667999
-0.091186203 -0.26304901 -0.49663699
-0.082592502 -0.26304901 -0.49665001
-0.091186203 -0.25445601 -0.49668899
-0.082592502 -0.25445601 -0.49669999
-0.073998697 -0.26304901 -0.49665701
-0.065404996 -0.26304901 -0.49659601
-0.073998697 -0.25445601 -0.49670199
-0.065404996 -0.25445601 -0.496658
-0.091186203 -0.24586201 -0.49668801
-0.082592502 -0.24586201 -0.49669999
-0.091186203 -0.237268 -0.49667099
-0.082592502 -0.237268 -0.49668401
-0.073998697 -0.24586201 -0.496701
-0.065404996 -0.24586201 -0.49665299
-0.073998697 -0.237268 -0.496687
-0.065404996 -0.237268 -0.49663401
-0.125561 -0.22867399 -0.49669701
-0.116967 -0.22867399 -0.49669799
-0.125561 -0.220081 -0.49666199
-0.116967 -0.220081 -0.496665
-0.108374 -0.22867399 -0.49665201
-0.099780001 -0.22867399 -0.49669099
-0.108374 -0.220081 -0.49660501
-0.099780001 -0.220081 -0.49665499
-0.125561 -0.211487 -0.49671
-0.116967 -0.211487 -0.49671
-0.125561 -0.202893 -0.49671
-0.116967 -0.202893 -0.49670899
-0.108374 -0.211487 -0.49666399
-0.099780001 -0.211487 -0.496701
-0.108374 -0.202893 -0.49666199
-0.099780001 -0.202893 -0.49669999
-0.091186203 -0.22867399 -0.49668199
-0.082592502 -0.22867399 -0.49669299
-0.091186203 -0.220081 -0.49664199
-0.082592502 -0.220081 -0.496656
-0.073998697 -0.22867399 -0.496696
-0.065404996 -0.22867399 -0.49665001
-0.073998697 -0.220081 -0.49666199
-0.065404996 -0.220081 -0.496602
-0.091186203 -0.211487 -0.49669501
-0.082592502 -0.211487 -0.49670601
-0.091186203 -0.202893 -0.496694
-0.082592502 -0.202893 -0.49670601
-0.073998697 -0.211487 -0.49670699
-0.065404996 -0.211487 -0.49666199
-0.073998697 -0.202893 -0.49670699
-0.065404996 -0.202893 -0.49665999
-0.056811199 -0.26304901 -0.49665499
-0.048217501 -0.26304901 -0.49664801
-0.056811199 -0.25445601 -0.496701
-0.048217501 -0.25445601 -0.49669799
-0.0396237 -0.26304901 -0.49664101
-0.031029999 -0.26304901 -0.49665201
-0.0396237 -0.25445601 -0.49669299
-0.031029999 -0.25445601 -0.49669799
-0.056811199 -0.24586201 -0.49669999
-0.048217501 -0.24586201 -0.49669799
-0.056811199 -0.237268 -0.496685
-0.048217501 -0.237268 -0.49668199
-0.0396237 -0.24586201 -0.496692
-0.031029999 -0.24586201 -0.496696
-0.0396237 -0.237268 -0.49667501
-0.031029999 -0.237268 -0.49668199
-0.0224363 -0.26304901 -0.49659801
-0.0138425 -0.26304901 -0.49665901
-0.0224363 -0.25445601 -0.49665901
-0.0138425 -0.25445601 -0.496705
-0.0052487301 -0.26304901 -0.496656
0.0033450101 -0.26304901 -0.496629
-0.0052487301 -0.25445601 -0.49670401
0.0033450101 -0.25445601 -0.496683
-0.0224363 -0.24586201 -0.496654
-0.0138425 -0.24586201 -0.49670401
-0.0224363 -0.237268 -0.49663499
-0.0138425 -0.237268 -0.49668899
-0.0052487301 -0.24586201 -0.49670401
0.0033450101 -0.24586201 -0.49668199
-0.0052487301 -0.237268 -0.49668801
0.0033450101 -0.237268 -0.49666399
-0.056811199 -0.22867399 -0.49669501
-0.048217501 -0.22867399 -0.49669099
-0.056811199 -0.220081 -0.49665999
-0.048217501 -0.220081 -0.496654
-0.0396237 -0.22867399 -0.496685
-0.031029999 -0.22867399 -0.496692
-0.0396237 -0.220081 -0.496647
-0.031029999 -0.220081 -0.49665701
-0.056811199 -0.211487 -0.49670601
-0.048217501 -0.211487 -0.49670401
-0.056811199 -0.202893 -0.49670601
-0.048217501 -0.202893 -0.49670401
-0.0396237 -0.211487 -0.49669799
-0.031029999 -0.211487 -0.496703
-0.0396237 -0.202893 -0.49669799
-0.031029999 -0.202893 -0.49670199
-0.0224363 -0.22867399 -0.49665099
-0.0138425 -0.22867399 -0.49669799
-0.0224363 -0.220081 -0.496604
-0.0138425 -0.220081 -0.49666399
-0.0052487301 -0.22867399 -0.49669701
0.0033450101 -0.22867399 -0.496676
-0.0052487301 -0.220081 -0.49666101
0.0033450101 -0.220081 -0.49663401
-0.0224363 -0.211487 -0.496663
-0.0138425 -0.211487 -0.49671
-0.0224363 -0.202893 -0.49666101
-0.0138425 -0.202893 -0.49670899
-0.0052487301 -0.211487 -0.49671
0.0033450101 -0.211487 -0.49668899
-0.0052487301 -0.202893 -0.49671
0.0033450101 -0.202893 -0.49668801
-0.125561 -0.194299 -0.49667799
-0.116967 -0.194299 -0.49667999
-0.125561 -0.185706 -0.49669501
-0.116967 -0.185706 -0.496696
-0.108374 -0.194299 -0.49662399
-0.099780001 -0.194299 -0.49667001
-0.108374 -0.185706 -0.49665001
-0.099780001 -0.185706 -0.49668899
-0.125561 -0.177112 -0.49667099
-0.116967 -0.177112 -0.49667299
-0.125561 -0.16851801 -0.496712
-0.116967 -0.16851801 -0.49671099
-0.108374 -0.177112 -0.49661499
-0.099780001 -0.177112 -0.496663
-0.108374 -0.16851801 -0.496665
-0.099780001 -0.16851801 -0.49670199
-0.091186203 -0.194299 -0.49665999
-0.082592502 -0.194299 -0.49667299
-0.091186203 -0.185706 -0.49667999
-0.082592502 -0.185706 -0.49669099
-0.073998697 -0.194299 -0.49667701
-0.065404996 -0.194299 -0.49662101
-0.073998697 -0.185706 -0.49669501
-0.065404996 -0.185706 -0.49664801
-0.091186203 -0.177112 -0.49665201
-0.082592502 -0.177112 -0.496665
-0.091186203 -0.16851801 -0.496696
-0.082592502 -0.16851801 -0.49670699
-0.073998697 -0.177112 -0.49667001
-0.065404996 -0.177112 -0.49661201
-0.073998697 -0.16851801 -0.49670899
-0.065404996 -0.16851801 -0.496663
-0.125561 -0.159924 -0.496712
-0.116967 -0.159924 -0.496712
-0.125561 -0.15133099 -0.49666899
-0.116967 -0.15133099 -0.49667099
-0.108374 -0.159924 -0.496665
-0.099780001 -0.159924 -0.49670199
-0.108374 -0.15133099 -0.49661201
-0.099780001 -0.15133099 -0.49666199
-0.125561 -0.142737 -0.49669701
-0.116967 -0.142737 -0.49669901
-0.125561 -0.13414299 -0.49668401
-0.116967 -0.13414299 -0.496685
-0.108374 -0.142737 -0.49665201
-0.099780001 -0.142737 -0.49669099
-0.108374 -0.13414299 -0.496629
-0.099780001 -0.13414299 -0.49667501
-0.091186203 -0.159924 -0.49669701
-0.082592502 -0.159924 -0.49670801
-0.091186203 -0.15133099 -0.49665001
-0.082592502 -0.15133099 -0.496663
-0.073998697 -0.159924 -0.49670899
-0.065404996 -0.159924 -0.496663
-0.073998697 -0.15133099 -0.49666801
-0.065404996 -0.15133099 -0.496609
-0.091186203 -0.142737 -0.49668199
-0.082592502 -0.142737 -0.49669299
-0.091186203 -0.13414299 -0.496665
-0.082592502 -0.13414299 -0.49667799
-0.073998697 -0.142737 -0.49669701
-0.065404996 -0.142737 -0.49665001
-0.073998697 -0.13414299 -0.49668199
-0.065404996 -0.13414299 -0.49662599
-0.056811199 -0.194299 -0.496676
-0.048217501 -0.194299 -0.49667099
-0.056811199 -0.185706 -0.496694
-0.048217501 -0.185706 -0.49668899
-0.0396237 -0.194299 -0.49666399
-0.031029999 -0.194299 -0.496672
-0.0396237 -0.185706 -0.496683
-0.031029999 -0.185706 -0.49669099
-0.056811199 -0.177112 -0.49666899
-0.048217501 -0.177112 -0.496663
-0.056811199 -0.16851801 -0.49670801
-0.048217501 -0.16851801 -0.49670601
-0.0396237 -0.177112 -0.496656
-0.031029999 -0.177112 -0.496665
-0.0396237 -0.16851801 -0.49669999
-0.031029999 -0.16851801 -0.49670401
-0.0224363 -0.194299 -0.49662301
-0.0138425 -0.194299 -0.49667999
-0.0224363 -0.185706 -0.496649
-0.0138425 -0.185706 -0.49669701
-0.0052487301 -0.194299 -0.49667799
0.0033450101 -0.194299 -0.49665201
-0.0052487301 -0.185706 -0.49669501
0.0033450101 -0.185706 -0.496674
-0.0224363 -0.177112 -0.49661401
-0.0138425 -0.177112 -0.49667299
-0.0224363 -0.16851801 -0.49666399
-0.0138425 -0.16851801 -0.49671099
-0.0052487301 -0.177112 -0.49667001
0.0033450101 -0.177112 -0.49664399
-0.0052487301 -0.16851801 -0.496712
0.0033450101 -0.16851801 -0.49669001
-0.056811199 -0.159924 -0.49670801
-0.048217501 -0.159924 -0.49670601
-0.056811199 -0.15133099 -0.496667
-0.048217501 -0.15133099 -0.49666101
-0.0396237 -0.159924 -0.49669999
-0.031029999 -0.159924 -0.49670401
-0.0396237 -0.15133099 -0.496654
-0.031029999 -0.15133099 -0.49666399
-0.056811199 -0.142737 -0.496696
-0.048217501 -0.142737 -0.49669099
-0.056811199 -0.13414299 -0.496681
-0.048217501 -0.13414299 -0.496676
-0.0396237 -0.142737 -0.496685
-0.031029999 -0.142737 -0.49669299
-0.0396237 -0.13414299 -0.49666899
-0.031029999 -0.13414299 -0.49667701
-0.0224363 -0.159924 -0.496665
-0.0138425 -0.159924 -0.496712
-0.0224363 -0.15133099 -0.496611
-0.0138425 -0.15133099 -0.49667099
-0.0052487301 -0.159924 -0.496712
0.0033450101 -0.159924 -0.49669099
-0.0052487301 -0.15133099 -0.49666801
0.0033450101 -0.15133099 -0.49664199
-0.0224363 -0.142737 -0.49665099
-0.0138425 -0.142737 -0.49669901
-0.0224363 -0.13414299 -0.49662799
-0.0138425 -0.13414299 -0.496685
-0.0052487301 -0.142737 -0.49669701
0.0033450101 -0.142737 -0.496676
-0.0052487301 -0.13414299 -0.496683
0.0033450101 -0.13414299 -0.496658
-0.26306099 -0.125549 -0.49665701
-0.25446701 -0.125549 -0.49670401
-0.26306099 -0.116956 -0.49665901
-0.25446701 -0.116956 -0.496705
-0.245874 -0.125549 -0.49670401
-0.23728 -0.125549 -0.49668899
-0.245874 -0.116956 -0.49670401
-0.23728 -0.116956 -0.49669001
-0.26306099 -0.108362 -0.49659899
-0.25446701 -0.108362 -0.49665999
-0.26306099 -0.099767998 -0.49665001
-0.25446701 -0.099767998 -0.496696
-0.245874 -0.108362 -0.49665499
-0.23728 -0.108362 -0.496636
-0.245874 -0.099767998 -0.496694
-0.23728 -0.099767998 -0.49667999
-0.228686 -0.125549 -0.49669701
-0.220093 -0.125549 -0.49666199
-0.228686 -0.116956 -0.49669799
-0.220093 -0.116956 -0.496665
-0.21149901 -0.125549 -0.49671
-0.202905 -0.125549 -0.49671
-0.21149901 -0.116956 -0.49671
-0.202905 -0.116956 -0.49670899
-0.228686 -0.108362 -0.49665201
-0.220093 -0.108362 -0.49660501
-0.228686 -0.099767998 -0.49669099
-0.220093 -0.099767998 -0.49665499
-0.21149901 -0.108362 -0.49666399
-0.202905 -0.108362 -0.49666199
-0.21149901 -0.099767998 -0.496701
-0.202905 -0.099767998 -0.49669999
-0.26306099 -0.0911742 -0.49663699
-0.25446701 -0.0911742 -0.49668899
-0.26306099 -0.082580499 -0.49665001
-0.25446701 -0.082580499 -0.49669999
-0.245874 -0.0911742 -0.49668801
-0.23728 -0.0911742 -0.49667099
-0.245874 -0.082580499 -0.49669999
-0.23728 -0.082580499 -0.49668401
-0.26306099 -0.073986799 -0.49665701
-0.25446701 -0.073986799 -0.49670199
-0.26306099 -0.065393001 -0.49659601
-0.25446701 -0.065393001 -0.496658
-0.245874 -0.073986799 -0.496701
-0.23728 -0.073986799 -0.496687
-0.245874 -0.065393001 -0.49665299
-0.23728 -0.065393001 -0.49663401
-0.228686 -0.0911742 -0.49668199
-0.220093 -0.0911742 -0.49664199
-0.228686 -0.082580499 -0.49669299
-0.220093 -0.082580499 -0.496656
-0.21149901 -0.0911742 -0.49669501
-0.202905 -0.0911742 -0.496694
-0.21149901 -0.082580499 -0.49670601
-0.202905 -0.082580499 -0.49670601
-0.228686 -0.073986799 -0.49669701
-0.220093 -0.073986799 -0.49666199
-0.228686 -0.065393001 -0.49665099
-0.220093 -0.065393001 -0.496602
-0.21149901 -0.073986799 -0.49670699
-0.202905 -0.073986799 -0.49670699
-0.21149901 -0.065393001 -0.49666199
-0.202905 -0.065393001 -0.49665999
-0.19431099 -0.125549 -0.49667799
-0.185717 -0.125549 -0.49669501
-0.19431099 -0.116956 -0.49667999
-0.185717 -0.116956 -0.496696
-0.17712399 -0.125549 -0.49667099
-0.16853 -0.125549 -0.496712
-0.17712399 -0.116956 -0.49667299
-0.16853 -0.116956 -0.49671099
-0.19431099 -0.108362 -0.49662399
-0.185717 -0.108362 -0.49665001
-0.19431099 -0.099767998 -0.49667001
-0.185717 -0.099767998 -0.49668899
-0.17712399 -0.108362 -0.49661499
-0.16853 -0.108362 -0.496665
-0.17712399 -0.099767998 -0.496663
-0.16853 -0.099767998 -0.49670199
-0.159936 -0.125549 -0.496712
-0.151342 -0.125549 -0.49666899
-0.159936 -0.116956 -0.496712
-0.151342 -0.116956 -0.49667099
-0.142749 -0.125549 -0.49669701
-0.13415501 -0.125549 -0.49668401
-0.142749 -0.116956 -0.49669901
-0.13415501 -0.116956 -0.496685
-0.159936 -0.108362 -0.496665
-0.151342 -0.108362 -0.49661201
-0.159936 -0.099767998 -0.49670199
-0.151342 -0.099767998 -0.49666199
-0.142749 -0.108362 -0.49665201
-0.13415501 -0.108362 -0.496629
-0.142749 -0.099767998 -0.49669099
-0.13415501 -0.099767998 -0.49667501
-0.19431099 -0.0911742 -0.49665999
-0.185717 -0.0911742 -0.49667999
-0.19431099 -0.082580499 -0.49667299
-0.185717 -0.082580499 -0.49669099
-0.17712399 -0.0911742 -0.49665201
-0.16853 -0.0911742 -0.496696
-0.17712399 -0.082580499 -0.496665
-0.16853 -0.082580499 -0.49670699
-0.19431099 -0.073986799 -0.49667701
-0.185717 -0.073986799 -0.49669501
-0.19431099 -0.065393001 -0.49662101
-0.185717 -0.065393001 -0.49664801
-0.17712399 -0.073986799 -0.49667001
-0.16853 -0.073986799 -0.49670899
-0.17712399 -0.065393001 -0.49661201
-0.16853 -0.065393001 -0.496663
-0.159936 -0.0911742 -0.49669701
-0.151342 -0.0911742 -0.49665001
-0.159936 -0.082580499 -0.49670801
-0.151342 -0.082580499 -0.496663
-0.142749 -0.0911742 -0.49668199
-0.13415501 -0.0911742 -0.496665
-0.142749 -0.082580499 -0.49669299
-0.13415501 -0.082580499 -0.49667799
-0.159936 -0.073986799 -0.49670899
-0.151342 -0.073986799 -0.49666801
-0.159936 -0.065393001 -0.496663
-0.151342 -0.065393001 -0.496609
-0.142749 -0.073986799 -0.49669701
-0.13415501 -0.073986799 -0.49668199
-0.142749 -0.065393001 -0.49665001
-0.13415501 -0.065393001 -0.49662599
-0.26306099 -0.0567993 -0.49665499
-0.25446701 -0.0567993 -0.496701
-0.26306099 -0.048205499 -0.49664801
-0.25446701 -0.048205499 -0.49669799
-0.245874 -0.0567993 -0.49669999
-0.23728 -0.0567993 -0.496685
-0.245874 -0.048205499 -0.49669799
-0.23728 -0.048205499 -0.49668199
-0.26306099 -0.039611802 -0.49664101
-0.25446701 -0.039611802 -0.49669299
-0.26306099 -0.031018 -0.49665201
-0.25446701 -0.031018 -0.49669799
-0.245874 -0.039611802 -0.496692
-0.23728 -0.039611802 -0.49667501
-0.245874 -0.031018 -0.496696
-0.23728 -0.031018 -0.49668199
-0.228686 -0.0567993 -0.49669501
-0.220093 -0.0567993 -0.49666101
-0.228686 -0.048205499 -0.49669099
-0.220093 -0.048205499 -0.496654
-0.21149901 -0.0567993 -0.49670601
-0.202905 -0.0567993 -0.49670601
-0.21149901 -0.048205499 -0.49670401
-0.202905 -0.048205499 -0.49670401
-0.228686 -0.039611802 -0.496685
-0.220093 -0.039611802 -0.496647
-0.228686 -0.031018 -0.496692
-0.220093 -0.031018 -0.49665701
-0.21149901 -0.039611802 -0.49669799
-0.202905 -0.039611802 -0.49669799
-0.21149901 -0.031018 -0.496703
-0.202905 -0.031018 -0.49670199
-0.26306099 -0.022424299 -0.49659801
-0.25446701 -0.022424299 -0.49665901
-0.26306099 -0.0138305 -0.49665901
-0.25446701 -0.0138305 -0.496705
-0.245874 -0.022424299 -0.49665499
-0.23728 -0.022424299 -0.49663499
-0.245874 -0.0138305 -0.49670401
-0.23728 -0.0138305 -0.49668899
-0.26306099 -0.0052367402 -0.496656
-0.25446701 -0.0052367402 -0.49670401
-0.26306099 0.0033569899 -0.496629
-0.25446701 0.0033569899 -0.49668401
-0.245874 -0.0052367402 -0.49670401
-0.23728 -0.0052367402 -0.49668801
-0.245874 0.0033569899 -0.49668199
-0.23728 0.0033569899 -0.49666399
-0.228686 -0.022424299 -0.49665201
-0.220093 -0.022424299 -0.496604
-0.228686 -0.0138305 -0.49669799
-0.220093 -0.0138305 -0.49666399
-0.21149901 -0.022424299 -0.496663
-0.202905 -0.022424299 -0.49666101
-0.21149901 -0.0138305 -0.49671
-0.202905 -0.0138305 -0.49670899
-0.228686 -0.0052367402 -0.49669701
-0.220093 -0.0052367402 -0.49666101
-0.228686 0.0033569899 -0.496676
-0.220093 0.0033569899 -0.49663401
-0.21149901 -0.0052367402 -0.49671
-0.202905 -0.0052367402 -0.49671
-0.21149901 0.0033569899 -0.49668899
-0.202905 0.0033569899 -0.49668801
-0.19431099 -0.0567993 -0.496676
-0.185717 -0.0567993 -0.496694
-0.19431099 -0.048205499 -0.49667099
-0.185717 -0.048205499 -0.49668899
-0.17712399 -0.0567993 -0.49666899
-0.16853 -0.0567993 -0.49670801
-0.17712399 -0.048205499 -0.496663
-0.16853 -0.048205499 -0.49670601
-0.19431099 -0.039611802 -0.49666399
-0.185717 -0.039611802 -0.496683
-0.19431099 -0.031018 -0.496672
-0.185717 -0.031018 -0.49669099
-0.17712399 -0.039611802 -0.496656
-0.16853 -0.039611802 -0.49669999
-0.17712399 -0.031018 -0.496665
-0.16853 -0.031018 -0.49670401
-0.159936 -0.0567993 -0.49670801
-0.151342 -0.0567993 -0.496667
-0.159936 -0.048205499 -0.49670601
-0.151342 -0.048205499 -0.49666101
-0.142749 -0.0567993 -0.496696
-0.13415501 -0.0567993 -0.496681
-0.142749 -0.048205499 -0.49669099
-0.13415501 -0.048205499 -0.496676
-0.159936 -0.039611802 -0.49669999
-0.151342 -0.039611802 -0.496654
-0.159936 -0.031018 -0.49670401
-0.151342 -0.031018 -0.49666399
-0.142749 -0.039611802 -0.496685
-0.13415501 -0.039611802 -0.49666899
-0.142749 -0.031018 -0.49669299
-0.13415501 -0.031018 -0.49667701
-0.19431099 -0.022424299 -0.49662301
-0.185717 -0.022424299 -0.496649
-0.19431099 -0.0138305 -0.49667999
-0.185717 -0.0138305 -0.49669701
-0.17712399 -0.022424299 -0.49661401
-0.16853 -0.022424299 -0.49666399
-0.17712399 -0.0138305 -0.49667299
-0.16853 -0.0138305 -0.49671099
-0.19431099 -0.0052367402 -0.49667799
-0.185717 -0.0052367402 -0.49669501
-0.19431099 0.0033569899 -0.49665201
-0.185717 0.0033569899 -0.496674
-0.17712399 -0.0052367402 -0.49667001
-0.16853 -0.0052367402 -0.496712
-0.17712399 0.0033569899 -0.49664399
-0.16853 0.0033569899 -0.49669001
-0.159936 -0.022424299 -0.496665
-0.151342 -0.022424299 -0.496611
-0.159936 -0.0138305 -0.496712
-0.151342 -0.0138305 -0.49667099
-0.142749 -0.022424299 -0.49665099
-0.13415501 -0.022424299 -0.49662799
-0.142749 -0.0138305 -0.49669901
-0.13415501 -0.0138305 -0.496685
-0.159936 -0.0052367402 -0.496712
-0.151342 -0.0052367402 -0.49666801
-0.159936 0.0033569899 -0.49669099
-0.151342 0.0033569899 -0.49664199
-0.142749 -0.0052367402 -0.49669701
-0.13415501 -0.0052367402 -0.496683
-0.142749 0.0033569899 -0.496676
-0.13415501 0.0033569899 -0.496658
-0.125561 -0.125549 -0.49671099
-0.116967 -0.125549 -0.49671099
-0.125561 -0.116956 -0.49671099
-0.116967 -0.116956 -0.49671099
-0.108374 -0.125549 -0.49666199
-0.099780001 -0.125549 -0.496701
-0.108374 -0.116956 -0.496665
-0.099780001 -0.116956 -0.49670199
-0.125561 -0.108362 -0.49666199
-0.116967 -0.108362 -0.496665
-0.125561 -0.099767998 -0.496701
-0.116967 -0.099767998 -0.49670199
-0.108374 -0.108362 -0.496604
-0.099780001 -0.108362 -0.49665499
-0.108374 -0.099767998 -0.49665499
-0.099780001 -0.099767998 -0.496694
-0.091186203 -0.125549 -0.49669501
-0.082592502 -0.125549 -0.49670699
-0.091186203 -0.116956 -0.49669501
-0.082592502 -0.116956 -0.49670699
-0.073998697 -0.125549 -0.49670801
-0.065404996 -0.125549 -0.49665999
-0.073998697 -0.116956 -0.49670801
-0.065404996 -0.116956 -0.496663
-0.091186203 -0.108362 -0.49664199
-0.082592502 -0.108362 -0.496656
-0.091186203 -0.099767998 -0.496685
-0.082592502 -0.099767998 -0.49669701
-0.073998697 -0.108362 -0.49666199
-0.065404996 -0.108362 -0.49660099
-0.073998697 -0.099767998 -0.49669999
-0.065404996 -0.099767998 -0.496654
-0.125561 -0.0911742 -0.49669501
-0.116967 -0.0911742 -0.49669501
-0.125561 -0.082580499 -0.49670699
-0.116967 -0.082580499 -0.49670699
-0.108374 -0.0911742 -0.49664199
-0.099780001 -0.0911742 -0.496685
-0.108374 -0.082580499 -0.496656
-0.099780001 -0.082580499 -0.49669701
-0.125561 -0.073986799 -0.49670801
-0.116967 -0.073986799 -0.49670801
-0.125561 -0.065393001 -0.49665999
-0.116967 -0.065393001 -0.496663
-0.108374 -0.073986799 -0.49666199
-0.099780001 -0.073986799 -0.49669999
-0.108374 -0.065393001 -0.49660099
-0.099780001 -0.065393001 -0.496654
-0.091186203 -0.0911742 -0.49667701
-0.082592502 -0.0911742 -0.49669001
-0.091186203 -0.082580499 -0.49669001
-0.082592502 -0.082580499 -0.49670199
-0.073998697 -0.0911742 -0.49669299
-0.065404996 -0.0911742 -0.49664
-0.073998697 -0.082580499 -0.49670401
-0.065404996 -0.082580499 -0.496654
-0.091186203 -0.073986799 -0.49669299
-0.082592502 -0.073986799 -0.49670401
-0.091186203 -0.065393001 -0.49664
-0.082592502 -0.065393001 -0.496654
-0.073998697 -0.073986799 -0.49670601
-0.065404996 -0.073986799 -0.49665999
-0.073998697 -0.065393001 -0.49665999
-0.065404996 -0.065393001 -0.49659801
-0.056811199 -0.125549 -0.49670699
-0.048217501 -0.125549 -0.496705
-0.056811199 -0.116956 -0.49670699
-0.048217501 -0.116956 -0.496705
-0.0396237 -0.125549 -0.49669901
-0.031029999 -0.125549 -0.496703
-0.0396237 -0.116956 -0.49669901
-0.031029999 -0.116956 -0.49670401
-0.056811199 -0.108362 -0.49666101
-0.048217501 -0.108362 -0.496654
-0.056811199 -0.099767998 -0.49669901
-0.048217501 -0.099767998 -0.496694
-0.0396237 -0.108362 -0.49664599
-0.031029999 -0.108362 -0.49665701
-0.0396237 -0.099767998 -0.49668899
-0.031029999 -0.099767998 -0.496696
-0.0224363 -0.125549 -0.49666101
-0.0138425 -0.125549 -0.49671099
-0.0224363 -0.116956 -0.49666399
-0.0138425 -0.116956 -0.49671099
-0.0052487301 -0.125549 -0.49671099
0.0033450101 -0.125549 -0.49668899
-0.0052487301 -0.116956 -0.49671099
0.0033450101 -0.116956 -0.49669001
-0.0224363 -0.108362 -0.49660301
-0.0138425 -0.108362 -0.496665
-0.0224363 -0.099767998 -0.49665499
-0.0138425 -0.099767998 -0.49670199
-0.0052487301 -0.108362 -0.49666101
0.0033450101 -0.108362 -0.49663401
-0.0052487301 -0.099767998 -0.496701
0.0033450101 -0.099767998 -0.49667999
-0.056811199 -0.0911742 -0.49669099
-0.048217501 -0.0911742 -0.49668801
-0.056811199 -0.082580499 -0.496703
-0.048217501 -0.082580499 -0.49669999
-0.0396237 -0.0911742 -0.496681
-0.031029999 -0.0911742 -0.496687
-0.0396237 -0.082580499 -0.496694
-0.031029999 -0.082580499 -0.49669901
-0.056811199 -0.073986799 -0.496705
-0.048217501 -0.073986799 -0.49670199
-0.056811199 -0.065393001 -0.49665901
-0.048217501 -0.065393001 -0.49665099
-0.0396237 -0.073986799 -0.496696
-0.031029999 -0.073986799 -0.49670199
-0.0396237 -0.065393001 -0.49664399
-0.031029999 -0.065393001 -0.496656
-0.0224363 -0.0911742 -0.49664101
-0.0138425 -0.0911742 -0.49669501
-0.0224363 -0.082580499 -0.49665499
-0.0138425 -0.082580499 -0.49670699
-0.0052487301 -0.0911742 -0.49669501
0.0033450101 -0.0911742 -0.49667001
-0.0052487301 -0.082580499 -0.49670699
0.0033450101 -0.082580499 -0.496683
-0.0224363 -0.073986799 -0.49666101
-0.0138425 -0.073986799 -0.49670899
-0.0224363 -0.065393001 -0.4966
-0.0138425 -0.065393001 -0.496663
-0.0052487301 -0.073986799 -0.49670801
0.0033450101 -0.073986799 -0.496687
-0.0052487301 -0.065393001 -0.49665901
0.0033450101 -0.065393001 -0.496631
-0.125561 -0.0567993 -0.49670699
-0.116967 -0.0567993 -0.49670699
-0.125561 -0.048205499 -0.496705
-0.116967 -0.048205499 -0.496705
-0.108374 -0.0567993 -0.49666101
-0.099780001 -0.0567993 -0.49669901
-0.108374 -0.048205499 -0.49665299
-0.099780001 -0.048205499 -0.496694
-0.125561 -0.039611802 -0.49669901
-0.116967 -0.039611802 -0.49669901
-0.125561 -0.031018 -0.496703
-0.116967 -0.031018 -0.49670401
-0.108374 -0.039611802 -0.49664599
-0.099780001 -0.039611802 -0.49668899
-0.108374 -0.031018 -0.49665701
-0.099780001 -0.031018 -0.496696
-0.091186203 -0.0567993 -0.49669099
-0.082592502 -0.0567993 -0.496703
-0.091186203 -0.048205499 -0.49668801
-0.082592502 -0.048205499 -0.49669999
-0.073998697 -0.0567993 -0.496705
-0.065404996 -0.0567993 -0.49665901
-0.073998697 -0.048205499 -0.49670199
-0.065404996 -0.048205499 -0.49665099
-0.091186203 -0.039611802 -0.496681
-0.082592502 -0.039611802 -0.496694
-0.091186203 -0.031018 -0.496687
-0.082592502 -0.031018 -0.49669901
-0.073998697 -0.039611802 -0.496696
-0.065404996 -0.039611802 -0.49664399
-0.073998697 -0.031018 -0.49670199
-0.065404996 -0.031018 -0.49665499
-0.125561 -0.022424299 -0.49666101
-0.116967 -0.022424299 -0.49666399
-0.125561 -0.0138305 -0.49671099
-0.116967 -0.0138305 -0.49671099
-0.108374 -0.022424299 -0.49660301
-0.099780001 -0.022424299 -0.49665499
-0.108374 -0.0138305 -0.496665
-0.099780001 -0.0138305 -0.49670199
-0.125561 -0.0052367402 -0.49671099
-0.116967 -0.0052367402 -0.49671099
-0.125561 0.0033569899 -0.49668899
-0.116967 0.0033569899 -0.49669001
-0.108374 -0.0052367402 -0.49666101
-0.099780001 -0.0052367402 -0.496701
-0.108374 0.0033569899 -0.49663401
-0.099780001 0.0033569899 -0.49667999
-0.091186203 -0.022424299 -0.49664101
-0.082592502 -0.022424299 -0.49665499
-0.091186203 -0.0138305 -0.49669501
-0.082592502 -0.0138305 -0.49670699
-0.073998697 -0.022424299 -0.49666101
-0.065404996 -0.022424299 -0.4966
-0.073998697 -0.0138305 -0.49670899
-0.065404996 -0.0138305 -0.496663
-0.091186203 -0.0052367402 -0.49669501
-0.082592502 -0.0052367402 -0.49670601
-0.091186203 0.0033569899 -0.49667001
-0.082592502 0.0033569899 -0.496683
-0.073998697 -0.0052367402 -0.49670801
-0.065404996 -0.0052367402 -0.49665901
-0.073998697 0.0033569899 -0.496687
-0.065404996 0.0033569899 -0.496631
-0.056811199 -0.0567993 -0.49670401
-0.048217501 -0.0567993 -0.496701
-0.056811199 -0.048205499 -0.496701
-0.048217501 -0.048205499 -0.49669799
-0.0396237 -0.0567993 -0.49669501
-0.031029999 -0.0567993 -0.496701
-0.0396237 -0.048205499 -0.496692
-0.031029999 -0.048205499 -0.49669701
-0.056811199 -0.039611802 -0.49669501
-0.048217501 -0.039611802 -0.496692
-0.056811199 -0.031018 -0.496701
-0.048217501 -0.031018 -0.49669701
-0.0396237 -0.039611802 -0.496685
-0.031029999 -0.039611802 -0.49669099
-0.0396237 -0.031018 -0.49669099
-0.031029999 -0.031018 -0.49669799
-0.0224363 -0.0567993 -0.49665999
-0.0138425 -0.0567993 -0.49670801
-0.0224363 -0.048205499 -0.49665299
-0.0138425 -0.048205499 -0.496705
-0.0052487301 -0.0567993 -0.49670699
0.0033450101 -0.0567993 -0.496685
-0.0052487301 -0.048205499 -0.496705
0.0033450101 -0.048205499 -0.496681
-0.0224363 -0.039611802 -0.496645
-0.0138425 -0.039611802 -0.49669901
-0.0224363 -0.031018 -0.49665701
-0.0138425 -0.031018 -0.49670401
-0.0052487301 -0.039611802 -0.49669799
0.0033450101 -0.039611802 -0.496674
-0.0052487301 -0.031018 -0.496703
0.0033450101 -0.031018 -0.49668199
-0.056811199 -0.022424299 -0.49665999
-0.048217501 -0.022424299 -0.49665299
-0.056811199 -0.0138305 -0.49670801
-0.048217501 -0.0138305 -0.496705
-0.0396237 -0.022424299 -0.496645
-0.031029999 -0.022424299 -0.49665701
-0.0396237 -0.0138305 -0.49669901
-0.031029999 -0.0138305 -0.49670401
-0.056811199 -0.0052367402 -0.49670699
-0.048217501 -0.0052367402 -0.496705
-0.056811199 0.0033569899 -0.496685
-0.048217501 0.0033569899 -0.496681
-0.0396237 -0.0052367402 -0.49669799
-0.031029999 -0.0052367402 -0.496703
-0.0396237 0.0033569899 -0.496674
-0.031029999 0.0033569899 -0.49668199
-0.0224363 -0.022424299 -0.496602
-0.0138425 -0.022424299 -0.49666399
-0.0224363 -0.0138305 -0.49666399
-0.0138425 -0.0138305 -0.49671099
-0.0052487301 -0.022424299 -0.49666101
0.0033450101 -0.022424299 -0.49663299
-0.0052487301 -0.0138305 -0.49671099
0.0033450101 -0.0138305 -0.49669001
-0.0224363 -0.0052367402 -0.49666101
-0.0138425 -0.0052367402 -0.49671099
-0.0224363 0.0033569899 -0.49663299
-0.0138425 0.0033569899 -0.49669001
-0.0052487301 -0.0052367402 -0.49671099
0.0033450101 -0.0052367402 -0.49668801
-0.0052487301 0.0033569899 -0.49668801
0.0033450101 0.0033569899 -0.496663
0.0119387 -0.49508101 -0.49551401
0.0205325 -0.49508101 -0.49639499
0.0291263 -0.49508101 -0.495114
0.037719999 -0.49508101 -0.49511799
0.0119387 -0.486487 -0.49750501
0.0205325 -0.486487 -0.49752301
0.0119387 -0.47789299 -0.49730301
0.0205325 -0.47789299 -0.49713299
0.0291263 -0.486487 -0.49748701
0.037719999 -0.486487 -0.49748901
0.0291263 -0.47789299 -0.49735999
0.037719999 -0.47789299 -0.497356
0.0463138 -0.49508101 -0.496151
0.054907501 -0.49508101 -0.49556199
0.063501202 -0.49508101 -0.496124
0.072094999 -0.49508101 -0.49512899
0.0463138 -0.486487 -0.49751699
0.054907501 -0.486487 -0.49750701
0.0463138 -0.47789299 -0.497172
0.054907501 -0.47789299 -0.49729601
0.063501202 -0.486487 -0.49752399
0.072094999 -0.486487 -0.49749601
0.063501202 -0.47789299 -0.49718401
0.072094999 -0.47789299 -0.49735001
0.080688797 -0.49508101 -0.49512801
0.089282498 -0.49508101 -0.496418
0.097876303 -0.49508101 -0.49551299
0.10647 -0.49508101 -0.49579599
0.080688797 -0.486487 -0.497493
0.089282498 -0.486487 -0.49753299
0.080688797 -0.47789299 -0.49735799
0.089282498 -0.47789299 -0.49713299
0.097876303 -0.486487 -0.49751201
0.10647 -0.486487 -0.497509
0.097876303 -0.47789299 -0.49730101
0.10647 -0.47789299 -0.49723399
0.115064 -0.49508101 -0.495208
0.123658 -0.49508101 -0.49521101
0.13225099 -0.49508101 -0.49658
0.140845 -0.49508101 -0.495406
0.115064 -0.486487 -0.49749801
0.123658 -0.486487 -0.49750599
0.115064 -0.47789299 -0.49732801
0.123658 -0.47789299 -0.49734101
0.13225099 -0.486487 -0.497538
0.140845 -0.486487 -0.49751401
0.13225099 -0.47789299 -0.49711099
0.140845 -0.47789299 -0.49731699
0.0119387 -0.46929899 -0.49719
0.0205325 -0.46929899 -0.49708599
0.0119387 -0.460706 -0.49678099
0.0205325 -0.460706 -0.49665701
0.0291263 -0.46929899 -0.497226
0.037719999 -0.46929899 -0.497224
0.0291263 -0.460706 -0.49680901
0.037719999 -0.460706 -0.49680501
0.0119387 -0.45211199 -0.49680901
0.0205325 -0.45211199 -0.49676001
0.0119387 -0.44351801 -0.496741
0.0205325 -0.44351801 -0.496694
0.0291263 -0.45211199 -0.49682701
0.037719999 -0.45211199 -0.49682599
0.0291263 -0.44351801 -0.496759
0.037719999 -0.44351801 -0.49675801
0.0463138 -0.46929899 -0.49711001
0.054907501 -0.46929899 -0.49718201
0.0463138 -0.460706 -0.496683
0.054907501 -0.460706 -0.496775
0.063501202 -0.46929899 -0.49711099
0.072094999 -0.46929899 -0.49722701
0.063501202 -0.460706 -0.49668801
0.072094999 -0.460706 -0.49680299
0.0463138 -0.45211199 -0.49677101
0.054907501 -0.45211199 -0.49680501
0.0463138 -0.44351801 -0.496705
0.054907501 -0.44351801 -0.496737
0.063501202 -0.45211199 -0.496773
0.072094999 -0.45211199 -0.49682599
0.063501202 -0.44351801 -0.49670699
0.072094999 -0.44351801 -0.496759
0.0119387 -0.43492401 -0.49669901
0.0205325 -0.43492401 -0.496656
0.0119387 -0.42633101 -0.49669999
0.0205325 -0.42633101 -0.49666399
0.0291263 -0.43492401 -0.49671501
0.037719999 -0.43492401 -0.496714
0.0291263 -0.42633101 -0.49671099
0.037719999 -0.42633101 -0.49671
0.0119387 -0.41773701 -0.496658
0.0205325 -0.41773701 -0.49661499
0.0119387 -0.409143 -0.49669701
0.0205325 -0.409143 -0.496667
0.0291263 -0.41773701 -0.496672
0.037719999 -0.41773701 -0.49667001
0.0291263 -0.409143 -0.49671
0.037719999 -0.409143 -0.49671
0.0463138 -0.43492401 -0.49666601
0.054907501 -0.43492401 -0.496696
0.0463138 -0.42633101 -0.49667299
0.054907501 -0.42633101 -0.49669799
0.063501202 -0.43492401 -0.49666801
0.072094999 -0.43492401 -0.496714
0.063501202 -0.42633101 -0.49667299
0.072094999 -0.42633101 -0.49671099
0.0463138 -0.41773701 -0.49662501
0.054907501 -0.41773701 -0.496656
0.0463138 -0.409143 -0.49667501
0.054907501 -0.409143 -0.49669501
0.063501202 -0.41773701 -0.49662599
0.072094999 -0.41773701 -0.49667001
0.063501202 -0.409143 -0.496676
0.072094999 -0.409143 -0.49671
0.080688797 -0.46929899 -0.49722701
0.089282498 -0.46929899 -0.49708399
0.080688797 -0.460706 -0.49680999
0.089282498 -0.460706 -0.49665701
0.097876303 -0.46929899 -0.497192
0.10647 -0.46929899 -0.49714699
0.097876303 -0.460706 -0.49678001
0.10647 -0.460706 -0.496723
0.080688797 -0.45211199 -0.49682701
0.089282498 -0.45211199 -0.496759
0.080688797 -0.44351801 -0.496759
0.089282498 -0.44351801 -0.49669299
0.097876303 -0.45211199 -0.49680901
0.10647 -0.45211199 -0.49678999
0.097876303 -0.44351801 -0.496741
0.10647 -0.44351801 -0.49672401
0.115064 -0.46929899 -0.497215
0.123658 -0.46929899 -0.49722001
0.115064 -0.460706 -0.49678999
0.123658 -0.460706 -0.49680299
0.13225099 -0.46929899 -0.49706301
0.140845 -0.46929899 -0.497201
0.13225099 -0.460706 -0.49664
0.140845 -0.460706 -0.49678901
0.115064 -0.45211199 -0.49682099
0.123658 -0.45211199 -0.496822
0.115064 -0.44351801 -0.49675399
0.123658 -0.44351801 -0.496755
0.13225099 -0.45211199 -0.49675
0.140845 -0.45211199 -0.496813
0.13225099 -0.44351801 -0.49668401
0.140845 -0.44351801 -0.49674499
0.080688797 -0.43492401 -0.49671501
0.089282498 -0.43492401 -0.49665499
0.080688797 -0.42633101 -0.49671099
0.089282498 -0.42633101 -0.49666399
0.097876303 -0.43492401 -0.49669901
0.10647 -0.43492401 -0.49668199
0.097876303 -0.42633101 -0.49669999
0.10647 -0.42633101 -0.496685
0.080688797 -0.41773701 -0.496672
0.089282498 -0.41773701 -0.49661401
0.080688797 -0.409143 -0.49671
0.089282498 -0.409143 -0.496667
0.097876303 -0.41773701 -0.496658
0.10647 -0.41773701 -0.49664
0.097876303 -0.409143 -0.49669701
0.10647 -0.409143 -0.496687
0.115064 -0.43492401 -0.49671
0.123658 -0.43492401 -0.49671099
0.115064 -0.42633101 -0.49670699
0.123658 -0.42633101 -0.49670899
0.13225099 -0.43492401 -0.496647
0.140845 -0.43492401 -0.496703
0.13225099 -0.42633101 -0.496658
0.140845 -0.42633101 -0.496703
0.115064 -0.41773701 -0.49666601
0.123658 -0.41773701 -0.49666899
0.115064 -0.409143 -0.49670699
0.123658 -0.409143 -0.49670699
0.13225099 -0.41773701 -0.49660799
0.140845 -0.41773701 -0.49666199
0.13225099 -0.409143 -0.49666101
0.140845 -0.409143 -0.49669999
0.14943901 -0.49508101 -0.495509
0.158033 -0.49508101 -0.49538001
0.16662601 -0.49508101 -0.49532399
0.17522 -0.49508101 -0.49660099
0.14943901 -0.486487 -0.49750501
0.158033 -0.486487 -0.497495
0.14943901 -0.47789299 -0.49727699
0.158033 -0.47789299 -0.49731001
0.16662601 -0.486487 -0.49750099
0.17522 -0.486487 -0.49753001
0.16662601 -0.47789299 -0.49733499
0.17522 -0.47789299 -0.49710101
0.183814 -0.49508101 -0.49524999
0.192407 -0.49508101 -0.49527901
0.201001 -0.49508101 -0.49564001
0.20959499 -0.49508101 -0.49545801
0.183814 -0.486487 -0.49748799
0.192407 -0.486487 -0.49748901
0.183814 -0.47789299 -0.49734199
0.192407 -0.47789299 -0.49732101
0.201001 -0.486487 -0.4975
0.20959499 -0.486487 -0.49750501
0.201001 -0.47789299 -0.49725401
0.20959499 -0.47789299 -0.49731001
0.218189 -0.49508101 -0.49651501
0.22678301 -0.49508101 -0.495168
0.235376 -0.49508101 -0.49515799
0.24397001 -0.49508101 -0.49594799
0.218189 -0.486487 -0.49753901
0.22678301 -0.486487 -0.49750099
0.218189 -0.47789299 -0.49711901
0.22678301 -0.47789299 -0.49735001
0.235376 -0.486487 -0.497493
0.24397001 -0.486487 -0.49751699
0.235376 -0.47789299 -0.497345
0.24397001 -0.47789299 -0.49720699
0.25256401 -0.49508101 -0.49555099
0.26115799 -0.49508101 -0.496308
0.26975101 -0.49508101 -0.49511001
0.27834499 -0.49508101 -0.49511501
0.25256401 -0.486487 -0.49751601
0.26115799 -0.486487 -0.49752599
0.25256401 -0.47789299 -0.49729499
0.26115799 -0.47789299 -0.497152
0.26975101 -0.486487 -0.49749601
0.27834499 -0.486487 -0.49749699
0.26975101 -0.47789299 -0.49735001
0.27834499 -0.47789299 -0.49735001
0.14943901 -0.46929899 -0.497181
0.158033 -0.46929899 -0.49719399
0.14943901 -0.460706 -0.49675301
0.158033 -0.460706 -0.49676999
0.16662601 -0.46929899 -0.49721
0.17522 -0.46929899 -0.49706501
0.16662601 -0.460706 -0.496797
0.17522 -0.460706 -0.496636
0.14943901 -0.45211199 -0.496804
0.158033 -0.45211199 -0.49681199
0.14943901 -0.44351801 -0.49673799
0.158033 -0.44351801 -0.49674499
0.16662601 -0.45211199 -0.49681801
0.17522 -0.45211199 -0.49674901
0.16662601 -0.44351801 -0.49675
0.17522 -0.44351801 -0.496683
0.183814 -0.46929899 -0.49721301
0.192407 -0.46929899 -0.49720201
0.183814 -0.460706 -0.49680099
0.192407 -0.460706 -0.49678001
0.201001 -0.46929899 -0.49716499
0.20959499 -0.46929899 -0.497192
0.201001 -0.460706 -0.49673799
0.20959499 -0.460706 -0.496784
0.183814 -0.45211199 -0.49682099
0.192407 -0.45211199 -0.49681601
0.183814 -0.44351801 -0.49675199
0.192407 -0.44351801 -0.49674901
0.201001 -0.45211199 -0.49679801
0.20959499 -0.45211199 -0.49680999
0.201001 -0.44351801 -0.49673101
0.20959499 -0.44351801 -0.49674201
0.14943901 -0.43492401 -0.49669501
0.158033 -0.43492401 -0.49670199
0.14943901 -0.42633101 -0.49669501
0.158033 -0.42633101 -0.49669999
0.16662601 -0.43492401 -0.49670699
0.17522 -0.43492401 -0.49664599
0.16662601 -0.42633101 -0.49670601
0.17522 -0.42633101 -0.49665701
0.14943901 -0.41773701 -0.49665201
0.158033 -0.41773701 -0.496658
0.14943901 -0.409143 -0.496696
0.158033 -0.409143 -0.496701
0.16662601 -0.41773701 -0.496665
0.17522 -0.41773701 -0.49660599
0.16662601 -0.409143 -0.496703
0.17522 -0.409143 -0.49665999
0.183814 -0.43492401 -0.49670899
0.192407 -0.43492401 -0.49670601
0.183814 -0.42633101 -0.49670699
0.192407 -0.42633101 -0.496703
0.201001 -0.43492401 -0.49668899
0.20959499 -0.43492401 -0.49669999
0.201001 -0.42633101 -0.49669001
0.20959499 -0.42633101 -0.496701
0.183814 -0.41773701 -0.496667
0.192407 -0.41773701 -0.49666199
0.183814 -0.409143 -0.496705
0.192407 -0.409143 -0.49670401
0.201001 -0.41773701 -0.49664599
0.20959499 -0.41773701 -0.49665999
0.201001 -0.409143 -0.496692
0.20959499 -0.409143 -0.49669799
0.218189 -0.46929899 -0.49707001
0.22678301 -0.46929899 -0.497224
0.218189 -0.460706 -0.49664599
0.22678301 -0.460706 -0.49680501
0.235376 -0.46929899 -0.49722001
0.24397001 -0.46929899 -0.497134
0.235376 -0.460706 -0.49679801
0.24397001 -0.460706 -0.49670699
0.218189 -0.45211199 -0.49675199
0.22678301 -0.45211199 -0.496824
0.218189 -0.44351801 -0.496687
0.22678301 -0.44351801 -0.49675599
0.235376 -0.45211199 -0.496824
0.24397001 -0.45211199 -0.496782
0.235376 -0.44351801 -0.49675599
0.24397001 -0.44351801 -0.49671599
0.25256401 -0.46929899 -0.49718899
0.26115799 -0.46929899 -0.49709299
0.25256401 -0.460706 -0.496777
0.26115799 -0.460706 -0.49666899
0.26975101 -0.46929899 -0.497228
0.27834499 -0.46929899 -0.49722701
0.26975101 -0.460706 -0.49680701
0.27834499 -0.460706 -0.49680501
0.25256401 -0.45211199 -0.49680701
0.26115799 -0.45211199 -0.496764
0.25256401 -0.44351801 -0.496739
0.26115799 -0.44351801 -0.49669799
