# .PCD v0.7 - Point Cloud Data file format
VERSION 0.7
FIELDS x y z
SIZE 4 4 4
TYPE F F F
COUNT 1 1 1
WIDTH 1468
HEIGHT 1
VIEWPOINT 0 0 0 1 0 0 0
POINTS 1468
DATA ascii
-0.37478 -0.49755001 0.243983
-0.34040499 -0.49746501 0.243983
-0.30603001 -0.497511 0.243983
-0.27165499 -0.497666 0.243983
-0.49756199 -0.37476799 0.243983
-0.49747801 -0.34039301 0.243983
-0.49752501 -0.30601799 0.243983
-0.49768099 -0.27164301 0.243983
-0.23728 -0.49777901 0.243983
-0.202905 -0.497877 0.243983
-0.16853 -0.497951 0.243983
-0.13415501 -0.497991 0.243983
-0.099780001 -0.49802601 0.243983
-0.065404996 -0.49802801 0.243983
-0.031029999 -0.49805301 0.243983
0.0033450101 -0.498052 0.243983
-0.49779499 -0.237268 0.243983
-0.49789399 -0.202893 0.243983
-0.497969 -0.16851801 0.243983
-0.49801001 -0.13414299 0.243983
-0.498045 -0.099767998 0.243983
-0.49804899 -0.065393001 0.243983
-0.49807301 -0.031018 0.243983
-0.498072 0.0033569899 0.243983
0.037719999 -0.498054 0.243983
0.072094999 -0.498041 0.243983
0.10647 -0.49801099 0.243983
0.140845 -0.49797601 0.243983
0.17522 -0.497899 0.243983
0.20959499 -0.497839 0.243983
0.24397001 -0.49772099 0.243983
0.27834499 -0.49759501 0.243983
0.31272 -0.49742901 0.243983
0.34709501 -0.49728 0.243983
0.38146999 -0.49724701 0.243983
0.41584501 -0.49740499 0.243983
0.45021999 -0.497877 0.243983
0.484595 -0.48908499 0.243983
0.496317 -0.47789299 0.243983
0.505391 -0.44351801 0.243983
0.50420201 -0.409143 0.243983
0.503712 -0.37476799 0.243983
0.50360203 -0.34039301 0.243983
0.50357997 -0.30601799 0.243983
0.50372303 -0.27164301 0.243983
0.50379097 -0.237268 0.243983
0.50386697 -0.202893 0.243983
0.503923 -0.16851801 0.243983
0.50395101 -0.13414299 0.243983
0.50398701 -0.099767998 0.243983
0.50395298 -0.065393001 0.243983
0.50400698 -0.031018 0.243983
0.50399297 0.0033569899 0.243983
-0.498074 0.037732001 0.243983
-0.49805999 0.072107002 0.243983
-0.49802801 0.106482 0.243983
-0.49799201 0.140857 0.243983
-0.497913 0.17523199 0.243983
-0.49785101 0.20960701 0.243983
-0.497731 0.243982 0.243983
-0.497603 0.278357 0.243983
-0.49743599 0.31273201 0.243983
-0.49728599 0.34710699 0.243983
-0.497253 0.38148201 0.243983
-0.497412 0.41585699 0.243983
-0.49788401 0.450232 0.243983
-0.48909199 0.48460701 0.243983
-0.47790501 0.496324 0.243983
-0.44352999 0.50539798 0.243983
-0.40915501 0.504206 0.243983
-0.37478 0.50371403 0.243983
-0.34040499 0.50360298 0.243983
-0.30603001 0.50357801 0.243983
-0.27165499 0.50371897 0.243983
-0.23728 0.50378603 0.243983
-0.202905 0.50386101 0.243983
-0.16853 0.50391501 0.243983
-0.13415501 0.50394201 0.243983
-0.099780001 0.50397801 0.243983
-0.065404996 0.50394201 0.243983
-0.031029999 0.50399601 0.243983
0.0033450101 0.50398302 0.243983
0.50399703 0.037732001 0.243983
0.50398499 0.072107002 0.243983
0.503959 0.106482 0.243983
0.50394201 0.140857 0.243983
0.50384402 0.17523199 0.243983
0.50383198 0.20960701 0.243983
0.50372601 0.243982 0.243983
0.50362998 0.278357 0.243983
0.037719999 0.50398701 0.243983
0.072094999 0.50397599 0.243983
0.10647 0.50395101 0.243983
0.140845 0.50393599 0.243983
0.17522 0.50384003 0.243983
0.20959499 0.50383103 0.243983
0.24397001 0.50372702 0.243983
0.27834499 0.50363398 0.243983
0.50350899 0.31273201 0.243983
0.50340497 0.34710699 0.243983
0.503425 0.38148201 0.243983
0.50356603 0.41585699 0.243983
0.31272 0.50351501 0.243983
0.34709501 0.50341302 0.243983
0.38146999 0.50343502 0.243983
0.41584501 0.50357699 0.243983
0.50379199 0.450232 0.243983
0.49347299 0.48460701 0.243983
0.45021999 0.50380403 0.243983
0.484595 0.493485 0.243983
-0.47790501 -0.49155599 0.27835801
-0.491561 -0.47789299 0.27835801
-0.44352999 -0.49939299 0.27835801
-0.40915501 -0.49797699 0.27835801
-0.499396 -0.44351801 0.27835801
-0.49798599 -0.409143 0.27835801
-0.37478 -0.497457 0.27835801
-0.34040499 -0.49735901 0.27835801
-0.30603001 -0.49738801 0.27835801
-0.27165499 -0.49754101 0.27835801
-0.49746901 -0.37476799 0.27835801
-0.49737301 -0.34039301 0.27835801
-0.49740201 -0.30601799 0.27835801
-0.497556 -0.27164301 0.27835801
-0.23728 -0.49764401 0.27835801
-0.202905 -0.49774 0.27835801
-0.16853 -0.49781099 0.27835801
-0.13415501 -0.49784899 0.27835801
-0.099780001 -0.497888 0.27835801
-0.065404996 -0.497881 0.27835801
-0.031029999 -0.497913 0.27835801
0.0033450101 -0.49791101 0.27835801
-0.49766001 -0.237268 0.27835801
-0.49775699 -0.202893 0.27835801
-0.49782899 -0.16851801 0.27835801
-0.497868 -0.13414299 0.27835801
-0.49790701 -0.099767998 0.27835801
-0.49790099 -0.065393001 0.27835801
-0.497933 -0.031018 0.27835801
-0.497931 0.0033569899 0.27835801
0.037719999 -0.49791399 0.27835801
0.072094999 -0.49790099 0.27835801
0.10647 -0.49787199 0.27835801
0.140845 -0.497841 0.27835801
0.17522 -0.497758 0.27835801
0.20959499 -0.49770999 0.27835801
0.24397001 -0.497594 0.27835801
0.27834499 -0.49747401 0.27835801
0.31272 -0.49732101 0.27835801
0.34709501 -0.497183 0.27835801
0.38146999 -0.497168 0.27835801
0.41584501 -0.497334 0.27835801
0.45021999 -0.497798 0.27835801
0.484595 -0.489007 0.27835801
0.49623001 -0.47789299 0.27835801
0.50530797 -0.44351801 0.27835801
0.50413799 -0.409143 0.27835801
0.50364202 -0.37476799 0.27835801
0.50352299 -0.34039301 0.27835801
0.50348598 -0.30601799 0.27835801
0.50362802 -0.27164301 0.27835801
0.50368899 -0.237268 0.27835801
0.50376397 -0.202893 0.27835801
0.50381798 -0.16851801 0.27835801
0.50384498 -0.13414299 0.27835801
0.50388497 -0.099767998 0.27835801
0.50384301 -0.065393001 0.27835801
0.50390399 -0.031018 0.27835801
0.50388902 0.0033569899 0.27835801
-0.497933 0.037732001 0.27835801
-0.49791899 0.072107002 0.27835801
-0.49788901 0.106482 0.27835801
-0.497857 0.140857 0.27835801
-0.49777201 0.17523199 0.27835801
-0.497722 0.20960701 0.27835801
-0.49760401 0.243982 0.27835801
-0.49748299 0.278357 0.27835801
-0.49732801 0.31273201 0.27835801
-0.49719 0.34710699 0.27835801
-0.49717399 0.38148201 0.27835801
-0.49733999 0.41585699 0.27835801
-0.49780601 0.450232 0.27835801
-0.48901501 0.48460701 0.27835801
-0.47790501 0.49623799 0.27835801
-0.44352999 0.50531501 0.27835801
-0.40915501 0.50414199 0.27835801
-0.37478 0.503645 0.27835801
-0.34040499 0.50352401 0.27835801
-0.30603001 0.50348502 0.27835801
-0.27165499 0.50362498 0.27835801
-0.23728 0.503685 0.27835801
-0.202905 0.50375801 0.27835801
-0.16853 0.503811 0.27835801
-0.13415501 0.50383699 0.27835801
-0.099780001 0.50387597 0.27835801
-0.065404996 0.503833 0.27835801
-0.031029999 0.50389498 0.27835801
0.0033450101 0.50387901 0.27835801
0.50389302 0.037732001 0.27835801
0.50388199 0.072107002 0.27835801
0.503856 0.106482 0.27835801
0.503842 0.140857 0.27835801
0.50374001 0.17523199 0.27835801
0.50373697 0.20960701 0.27835801
0.503631 0.243982 0.27835801
0.50354201 0.278357 0.27835801
0.037719999 0.50388402 0.27835801
0.072094999 0.503874 0.27835801
0.10647 0.50384903 0.27835801
0.140845 0.50383699 0.27835801
0.17522 0.50373602 0.27835801
0.20959499 0.50373602 0.27835801
0.24397001 0.50363302 0.27835801
0.27834499 0.503546 0.27835801
0.503429 0.31273201 0.27835801
0.50333601 0.34710699 0.27835801
0.50336999 0.38148201 0.27835801
0.50351399 0.41585699 0.27835801
0.31272 0.50343502 0.27835801
0.34709501 0.503344 0.27835801
0.38146999 0.50338 0.27835801
0.41584501 0.50352401 0.27835801
0.50373203 0.450232 0.27835801
0.493397 0.48460701 0.27835801
0.45021999 0.50374299 0.27835801
0.484595 0.49340901 0.27835801
-0.47790501 -0.49148101 0.31273299
-0.49148601 -0.47789299 0.31273299
-0.44352999 -0.49933299 0.31273299
-0.40915501 -0.497899 0.31273299
-0.499336 -0.44351801 0.31273299
-0.497908 -0.409143 0.31273299
-0.37478 -0.49735299 0.31273299
-0.34040499 -0.49723101 0.31273299
-0.30603001 -0.497233 0.31273299
-0.27165499 -0.49737799 0.31273299
-0.497365 -0.37476799 0.31273299
-0.497244 -0.34039301 0.31273299
-0.49724701 -0.30601799 0.31273299
-0.49739301 -0.27164301 0.31273299
-0.23728 -0.497471 0.31273299
-0.202905 -0.49755999 0.31273299
-0.16853 -0.49762899 0.31273299
-0.13415501 -0.49766499 0.31273299
-0.099780001 -0.497704 0.31273299
-0.065404996 -0.49769101 0.31273299
-0.031029999 -0.49772999 0.31273299
0.0033450101 -0.49772501 0.31273299
-0.497486 -0.237268 0.31273299
-0.49757701 -0.202893 0.31273299
-0.497646 -0.16851801 0.31273299
-0.497684 -0.13414299 0.31273299
-0.49772301 -0.099767998 0.31273299
-0.49770999 -0.065393001 0.31273299
-0.497749 -0.031018 0.31273299
-0.49774501 0.0033569899 0.31273299
0.037719999 -0.497729 0.31273299
0.072094999 -0.49771801 0.31273299
0.10647 -0.49768901 0.31273299
0.140845 -0.49766299 0.31273299
0.17522 -0.49757701 0.31273299
0.20959499 -0.49753901 0.31273299
0.24397001 -0.497428 0.31273299
0.27834499 -0.49732 0.31273299
0.31272 -0.49718201 0.31273299
0.34709501 -0.497067 0.31273299
0.38146999 -0.497082 0.31273299
0.41584501 -0.497273 0.31273299
0.45021999 -0.497758 0.31273299
0.484595 -0.488958 0.31273299
0.496178 -0.47789299 0.31273299
0.50526899 -0.44351801 0.31273299
0.50408602 -0.409143 0.31273299
0.50356901 -0.37476799 0.31273299
0.503429 -0.34039301 0.31273299
0.503371 -0.30601799 0.31273299
0.503506 -0.27164301 0.31273299
0.50355899 -0.237268 0.31273299
0.50362998 -0.202893 0.31273299
0.50368297 -0.16851801 0.31273299
0.503708 -0.13414299 0.31273299
0.50374901 -0.099767998 0.31273299
0.503703 -0.065393001 0.31273299
0.50376999 -0.031018 0.31273299
0.50375301 0.0033569899 0.31273299
-0.49774799 0.037732001 0.31273299
-0.49773601 0.072107002 0.31273299
-0.49770701 0.106482 0.31273299
-0.497679 0.140857 0.31273299
-0.49759099 0.17523199 0.31273299
-0.49755201 0.20960701 0.31273299
-0.497439 0.243982 0.31273299
-0.497329 0.278357 0.31273299
-0.49719 0.31273201 0.31273299
-0.49707299 0.34710699 0.31273299
-0.49708799 0.38148201 0.31273299
-0.49728 0.41585699 0.31273299
-0.49776599 0.450232 0.31273299
-0.48896599 0.48460701 0.31273299
-0.47790501 0.496185 0.31273299
-0.44352999 0.50527698 0.31273299
-0.40915501 0.50409102 0.31273299
-0.37478 0.503573 0.31273299
-0.34040499 0.50343102 0.31273299
-0.30603001 0.503371 0.31273299
-0.27165499 0.50350398 0.31273299
-0.23728 0.503555 0.31273299
-0.202905 0.50362498 0.31273299
-0.16853 0.50367701 0.31273299
-0.13415501 0.50370097 0.31273299
-0.099780001 0.50374198 0.31273299
-0.065404996 0.503694 0.31273299
-0.031029999 0.50376099 0.31273299
0.0033450101 0.50374401 0.31273299
0.50375801 0.037732001 0.31273299
0.503748 0.072107002 0.31273299
0.50372303 0.106482 0.31273299
0.503712 0.140857 0.31273299
0.50360698 0.17523199 0.31273299
0.503613 0.20960701 0.31273299
0.50351101 0.243982 0.31273299
0.50343001 0.278357 0.31273299
0.037719999 0.50375003 0.31273299
0.072094999 0.50374103 0.31273299
0.10647 0.50371701 0.31273299
0.140845 0.503708 0.31273299
0.17522 0.50360501 0.31273299
0.20959499 0.503613 0.31273299
0.24397001 0.50351298 0.31273299
0.27834499 0.50343502 0.31273299
0.50333101 0.31273201 0.31273299
0.50325602 0.34710699 0.31273299
0.50331599 0.38148201 0.31273299
0.50348097 0.41585699 0.31273299
0.31272 0.50333798 0.31273299
0.34709501 0.50326502 0.31273299
0.38146999 0.503326 0.31273299
0.41584501 0.503492 0.31273299
0.50371301 0.450232 0.31273299
0.49337199 0.48460701 0.31273299
0.45021999 0.50372499 0.31273299
0.484595 0.493384 0.31273299
-0.47790501 -0.49151 0.34710801
-0.49151501 -0.47789299 0.34710801
-0.44352999 -0.49937999 0.34710801
-0.40915501 -0.49788201 0.34710801
-0.499383 -0.44351801 0.34710801
-0.49789101 -0.409143 0.34710801
-0.37478 -0.49728999 0.34710801
-0.34040499 -0.49712801 0.34710801
-0.30603001 -0.49709699 0.34710801
-0.27165499 -0.49723101 0.34710801
-0.497302 -0.37476799 0.34710801
-0.497141 -0.34039301 0.34710801
-0.49711099 -0.30601799 0.34710801
-0.497246 -0.27164301 0.34710801
-0.23728 -0.49731001 0.34710801
-0.202905 -0.49739501 0.34710801
-0.16853 -0.49746001 0.34710801
-0.13415501 -0.49749401 0.34710801
-0.099780001 -0.49753401 0.34710801
-0.065404996 -0.497511 0.34710801
-0.031029999 -0.49755901 0.34710801
0.0033450101 -0.49755299 0.34710801
-0.49732599 -0.237268 0.34710801
-0.49741101 -0.202893 0.34710801
-0.49747699 -0.16851801 0.34710801
-0.497511 -0.13414299 0.34710801
-0.49755201 -0.099767998 0.34710801
-0.497531 -0.065393001 0.34710801
-0.497578 -0.031018 0.34710801
-0.497572 0.0033569899 0.34710801
0.037719999 -0.497558 0.34710801
0.072094999 -0.497547 0.34710801
0.10647 -0.49752 0.34710801
0.140845 -0.49749899 0.34710801
0.17522 -0.497408 0.34710801
0.20959499 -0.497383 0.34710801
0.24397001 -0.497278 0.34710801
0.27834499 -0.49718201 0.34710801
0.31272 -0.49706599 0.34710801
0.34709501 -0.49698001 0.34710801
0.38146999 -0.49703699 0.34710801
0.41584501 -0.49727899 0.34710801
0.45021999 -0.49782199 0.34710801
0.484595 -0.48902601 0.34710801
0.496252 -0.47789299 0.34710801
0.50533801 -0.44351801 0.34710801
0.50409901 -0.409143 0.34710801
0.50353903 -0.37476799 0.34710801
0.503362 -0.34039301 0.34710801
0.50327802 -0.30601799 0.34710801
0.50340098 -0.27164301 0.34710801
0.50344503 -0.237268 0.34710801
0.50351202 -0.202893 0.34710801
0.50356299 -0.16851801 0.34710801
0.50358701 -0.13414299 0.34710801
0.50362903 -0.099767998 0.34710801
0.50357801 -0.065393001 0.34710801
0.503649 -0.031018 0.34710801
0.50363201 0.0033569899 0.34710801
-0.49757701 0.037732001 0.34710801
-0.497565 0.072107002 0.34710801
-0.497538 0.106482 0.34710801
-0.49751499 0.140857 0.34710801
-0.49742201 0.17523199 0.34710801
-0.49739599 0.20960701 0.34710801
-0.497289 0.243982 0.34710801
-0.49719101 0.278357 0.34710801
-0.49707401 0.31273201 0.34710801
-0.49698699 0.34710699 0.34710801
-0.497044 0.38148201 0.34710801
-0.49728599 0.41585699 0.34710801
-0.49783 0.450232 0.34710801
-0.48903501 0.48460701 0.34710801
-0.47790501 0.49625999 0.34710801
-0.44352999 0.505346 0.34710801
-0.40915501 0.50410402 0.34710801
-0.37478 0.50354302 0.34710801
-0.34040499 0.50336498 0.34710801
-0.30603001 0.50327802 0.34710801
-0.27165499 0.50340003 0.34710801
-0.23728 0.50344199 0.34710801
-0.202905 0.50350797 0.34710801
-0.16853 0.50355798 0.34710801
-0.13415501 0.503582 0.34710801
-0.099780001 0.503622 0.34710801
-0.065404996 0.50357002 0.34710801
-0.031029999 0.50364202 0.34710801
0.0033450101 0.50362498 0.34710801
0.50363898 0.037732001 0.34710801
0.50362998 0.072107002 0.34710801
0.50360602 0.106482 0.34710801
0.50359797 0.140857 0.34710801
0.50349098 0.17523199 0.34710801
0.50350398 0.20960701 0.34710801
0.50340801 0.243982 0.34710801
0.50333703 0.278357 0.34710801
0.037719999 0.50363201 0.34710801
0.072094999 0.50362402 0.34710801
0.10647 0.50360101 0.34710801
0.140845 0.50359499 0.34710801
0.17522 0.50348902 0.34710801
0.20959499 0.50350499 0.34710801
0.24397001 0.503411 0.34710801
0.27834499 0.50334299 0.34710801
0.50325698 0.31273201 0.34710801
0.50320798 0.34710699 0.34710801
0.50330502 0.38148201 0.34710801
0.503519 0.41585699 0.34710801
0.31272 0.50326401 0.34710801
0.34709501 0.50321698 0.34710801
0.38146999 0.50331497 0.34710801
0.41584501 0.50353003 0.34710801
0.50379902 0.450232 0.34710801
0.49349001 0.48460701 0.34710801
0.45021999 0.50380999 0.34710801
0.484595 0.49350199 0.34710801
-0.47790501 -0.49201 0.38148299
-0.492015 -0.47789299 0.38148299
-0.44352999 -0.49959001 0.38148299
-0.40915501 -0.49803299 0.38148299
-0.49959299 -0.44351801 0.38148299
-0.49804199 -0.409143 0.38148299
-0.37478 -0.49737799 0.38148299
-0.34040499 -0.497159 0.38148299
-0.30603001 -0.49708501 0.38148299
-0.27165499 -0.49720001 0.38148299
-0.49739 -0.37476799 0.38148299
-0.497172 -0.34039301 0.38148299
-0.49709901 -0.30601799 0.38148299
-0.49721399 -0.27164301 0.38148299
-0.23728 -0.49726301 0.38148299
-0.202905 -0.49733999 0.38148299
-0.16853 -0.497399 0.38148299
-0.13415501 -0.49743 0.38148299
-0.099780001 -0.49746901 0.38148299
-0.065404996 -0.497437 0.38148299
-0.031029999 -0.49749199 0.38148299
0.0033450101 -0.497486 0.38148299
-0.49727899 -0.237268 0.38148299
-0.497356 -0.202893 0.38148299
-0.49741599 -0.16851801 0.38148299
-0.49744701 -0.13414299 0.38148299
-0.497486 -0.099767998 0.38148299
-0.497455 -0.065393001 0.38148299
-0.49750999 -0.031018 0.38148299
-0.497504 0.0033569899 0.38148299
0.037719999 -0.49749199 0.38148299
0.072094999 -0.49748299 0.38148299
0.10647 -0.49745899 0.38148299
0.140845 -0.49744201 0.38148299
0.17522 -0.49734899 0.38148299
0.20959499 -0.49733901 0.38148299
0.24397001 -0.49724501 0.38148299
0.27834499 -0.49716699 0.38148299
0.31272 -0.49708101 0.38148299
0.34709501 -0.49703699 0.38148299
0.38146999 -0.49715501 0.38148299
0.41584501 -0.497473 0.38148299
0.45021999 -0.49808401 0.38148299
0.484595 -0.48956001 0.38148299
0.496806 -0.47789299 0.38148299
0.50558603 -0.44351801 0.38148299
0.504278 -0.409143 0.38148299
0.50366002 -0.37476799 0.38148299
0.503434 -0.34039301 0.38148299
0.50330901 -0.30601799 0.38148299
0.50342 -0.27164301 0.38148299
0.50345099 -0.237268 0.38148299
0.50351298 -0.202893 0.38148299
0.50356001 -0.16851801 0.38148299
0.503582 -0.13414299 0.38148299
0.50362402 -0.099767998 0.38148299
0.503564 -0.065393001 0.38148299
0.50364399 -0.031018 0.38148299
0.50362599 0.0033569899 0.38148299
-0.49750999 0.037732001 0.38148299
-0.49750099 0.072107002 0.38148299
-0.49747601 0.106482 0.38148299
-0.49745801 0.140857 0.38148299
-0.497363 0.17523199 0.38148299
-0.497352 0.20960701 0.38148299
-0.49725601 0.243982 0.38148299
-0.49717599 0.278357 0.38148299
-0.497089 0.31273201 0.38148299
-0.49704501 0.34710699 0.38148299
-0.49716201 0.38148201 0.38148299
-0.49748001 0.41585699 0.38148299
-0.49809301 0.450232 0.38148299
-0.48956901 0.48460701 0.38148299
-0.47790501 0.496815 0.38148299
-0.44352999 0.50559402 0.38148299
-0.40915501 0.50428498 0.38148299
-0.37478 0.50366497 0.38148299
-0.34040499 0.50343698 0.38148299
-0.30603001 0.50331098 0.38148299
-0.27165499 0.50342101 0.38148299
-0.23728 0.50344998 0.38148299
-0.202905 0.50351101 0.38148299
-0.16853 0.50355703 0.38148299
-0.13415501 0.50357801 0.38148299
-0.099780001 0.50362098 0.38148299
-0.065404996 0.50355899 0.38148299
-0.031029999 0.50364 0.38148299
0.0033450101 0.503622 0.38148299
0.50363398 0.037732001 0.38148299
0.503627 0.072107002 0.38148299
0.50360501 0.106482 0.38148299
0.50360203 0.140857 0.38148299
0.50348997 0.17523199 0.38148299
0.50351799 0.20960701 0.38148299
0.503429 0.243982 0.38148299
0.50337303 0.278357 0.38148299
0.037719999 0.50362998 0.38148299
0.072094999 0.50362301 0.38148299
0.10647 0.50360203 0.38148299
0.140845 0.5036 0.38148299
0.17522 0.50348997 0.38148299
0.20959499 0.50352001 0.38148299
0.24397001 0.50343299 0.38148299
0.27834499 0.50337899 0.38148299
0.50331801 0.31273201 0.38148299
0.50330597 0.34710699 0.38148299
0.50345898 0.38148201 0.38148299
0.50374103 0.41585699 0.38148299
0.31272 0.503326 0.38148299
0.34709501 0.50331497 0.38148299
0.38146999 0.50347 0.38148299
0.41584501 0.50375199 0.38148299
0.50410098 0.450232 0.38148299
0.49406299 0.48460701 0.38148299
0.45021999 0.50411302 0.38148299
0.484595 0.494075 0.38148299
-0.47790501 -0.492293 0.415858
-0.49229801 -0.47789299 0.415858
-0.44352999 -0.500103 0.415858
-0.40915501 -0.498447 0.415858
-0.50010699 -0.44351801 0.415858
-0.49845701 -0.409143 0.415858
-0.37478 -0.49766999 0.415858
-0.34040499 -0.49736401 0.415858
-0.30603001 -0.49724299 0.415858
-0.27165499 -0.49734399 0.415858
-0.49768201 -0.37476799 0.415858
-0.49737599 -0.34039301 0.415858
-0.49725699 -0.30601799 0.415858
-0.49735901 -0.27164301 0.415858
-0.23728 -0.49740699 0.415858
-0.202905 -0.49747699 0.415858
-0.16853 -0.49753401 0.415858
-0.13415501 -0.49756601 0.415858
-0.099780001 -0.497596 0.415858
-0.065404996 -0.49755499 0.415858
-0.031029999 -0.49761999 0.415858
0.0033450101 -0.497619 0.415858
-0.49742201 -0.237268 0.415858
-0.49749199 -0.202893 0.415858
-0.49755001 -0.16851801 0.415858
-0.497583 -0.13414299 0.415858
-0.497614 -0.099767998 0.415858
-0.49757299 -0.065393001 0.415858
-0.497637 -0.031018 0.415858
-0.497637 0.0033569899 0.415858
0.037719999 -0.49762401 0.415858
0.072094999 -0.49761799 0.415858
0.10647 -0.49759799 0.415858
0.140845 -0.49757999 0.415858
0.17522 -0.49748299 0.415858
0.20959499 -0.49748501 0.415858
0.24397001 -0.49740401 0.415858
0.27834499 -0.49733299 0.415858
0.31272 -0.49727401 0.415858
0.34709501 -0.49727899 0.415858
0.38146999 -0.49747199 0.415858
0.41584501 -0.49790701 0.415858
0.45021999 -0.49860501 0.415858
0.484595 -0.48991501 0.415858
0.49715 -0.47789299 0.415858
0.50606197 -0.44351801 0.415858
0.504664 -0.409143 0.415858
0.50392002 -0.37476799 0.415858
0.50360501 -0.34039301 0.415858
0.50344199 -0.30601799 0.415858
0.50353801 -0.27164301 0.415858
0.50357503 -0.237268 0.415858
0.503631 -0.202893 0.415858
0.50367898 -0.16851801 0.415858
0.50370598 -0.13414299 0.415858
0.50373602 -0.099767998 0.415858
0.503672 -0.065393001 0.415858
0.50375599 -0.031018 0.415858
0.50374901 0.0033569899 0.415858
-0.49764201 0.037732001 0.415858
-0.49763501 0.072107002 0.415858
-0.49761501 0.106482 0.415858
-0.49759501 0.140857 0.415858
-0.49749699 0.17523199 0.415858
-0.49749699 0.20960701 0.415858
-0.49741501 0.243982 0.415858
-0.497343 0.278357 0.415858
-0.497282 0.31273201 0.415858
-0.49728701 0.34710699 0.415858
-0.49748099 0.38148201 0.415858
-0.49791601 0.41585699 0.415858
-0.49861401 0.450232 0.415858
-0.48992401 0.48460701 0.415858
-0.47790501 0.497159 0.415858
-0.44352999 0.50607097 0.415858
-0.40915501 0.50467098 0.415858
-0.37478 0.50392503 0.415858
-0.34040499 0.50361001 0.415858
-0.30603001 0.50344503 0.415858
-0.27165499 0.50353998 0.415858
-0.23728 0.50357598 0.415858
-0.202905 0.50363201 0.415858
-0.16853 0.50367802 0.415858
-0.13415501 0.50370401 0.415858
-0.099780001 0.50373298 0.415858
-0.065404996 0.50366998 0.415858
-0.031029999 0.50375402 0.415858
0.0033450101 0.50374597 0.415858
0.50375301 0.037732001 0.415858
0.50374901 0.072107002 0.415858
0.50373298 0.106482 0.415858
0.50372303 0.140857 0.415858
0.503613 0.17523199 0.415858
0.50364399 0.20960701 0.415858
0.50357002 0.243982 0.415858
0.50351697 0.278357 0.415858
0.037719999 0.50375098 0.415858
0.072094999 0.50374699 0.415858
0.10647 0.50373101 0.415858
0.140845 0.50372201 0.415858
0.17522 0.50361401 0.415858
0.20959499 0.50364602 0.415858
0.24397001 0.50357503 0.415858
0.27834499 0.50352299 0.415858
0.503483 0.31273201 0.415858
0.50352001 0.34710699 0.415858
0.50374198 0.38148201 0.415858
0.504152 0.41585699 0.415858
0.31272 0.503492 0.415858
0.34709501 0.50353098 0.415858
0.38146999 0.50375199 0.415858
0.41584501 0.50416303 0.415858
0.50457299 0.450232 0.415858
0.49449599 0.48460701 0.415858
0.45021999 0.50458503 0.415858
0.484595 0.494508 0.415858
0.39865801 0.503784 0.398671
-0.47790501 -0.49419001 0.45023301
-0.494196 -0.47789299 0.45023301
-0.44352999 -0.50104702 0.45023301
-0.40915501 -0.499073 0.45023301
-0.50105202 -0.44351801 0.45023301
-0.49908301 -0.409143 0.45023301
-0.37478 -0.498202 0.45023301
-0.34040499 -0.497861 0.45023301
-0.30603001 -0.49764299 0.45023301
-0.27165499 -0.497807 0.45023301
-0.498216 -0.37476799 0.45023301
-0.49787399 -0.34039301 0.45023301
-0.49765399 -0.30601799 0.45023301
-0.49782199 -0.27164301 0.45023301
-0.23728 -0.49785799 0.45023301
-0.202905 -0.49790999 0.45023301
-0.16853 -0.49796101 0.45023301
-0.13415501 -0.49800199 0.45023301
-0.099780001 -0.49803099 0.45023301
-0.065404996 -0.49790901 0.45023301
-0.031029999 -0.49805 0.45023301
0.0033450101 -0.498045 0.45023301
-0.49787399 -0.237268 0.45023301
-0.497922 -0.202893 0.45023301
-0.49797499 -0.16851801 0.45023301
-0.49801901 -0.13414299 0.45023301
-0.49804601 -0.099767998 0.45023301
-0.497924 -0.065393001 0.45023301
-0.49806699 -0.031018 0.45023301
-0.49806201 0.0033569899 0.45023301
0.037719999 -0.498036 0.45023301
0.072094999 -0.498032 0.45023301
0.10647 -0.49803501 0.45023301
0.140845 -0.49802899 0.45023301
0.17522 -0.49786401 0.45023301
0.20959499 -0.497953 0.45023301
0.24397001 -0.49787501 0.45023301
0.27834499 -0.49779701 0.45023301
0.31272 -0.49776 0.45023301
0.34709501 -0.49782199 0.45023301
0.38146999 -0.49808401 0.45023301
0.41584501 -0.498604 0.45023301
0.45021999 -0.49963701 0.45023301
0.484595 -0.49177101 0.45023301
0.49887601 -0.47789299 0.45023301
0.506769 -0.44351801 0.45023301
0.505036 -0.409143 0.45023301
0.50419301 -0.37476799 0.45023301
0.50385398 -0.34039301 0.45023301
0.50357503 -0.30601799 0.45023301
0.50376201 -0.27164301 0.45023301
0.50378102 -0.237268 0.45023301
0.50382501 -0.202893 0.45023301
0.503869 -0.16851801 0.45023301
0.503905 -0.13414299 0.45023301
0.50394797 -0.099767998 0.45023301
0.50378001 -0.065393001 0.45023301
0.50396401 -0.031018 0.45023301
0.50393999 0.0033569899 0.45023301
-0.49805099 0.037732001 0.45023301
-0.49805 0.072107002 0.45023301
-0.49805099 0.106482 0.45023301
-0.49804199 0.140857 0.45023301
-0.497877 0.17523199 0.45023301
-0.49796399 0.20960701 0.45023301
-0.49788699 0.243982 0.45023301
-0.49781001 0.278357 0.45023301
-0.497769 0.31273201 0.45023301
-0.49782899 0.34710699 0.45023301
-0.49809399 0.38148201 0.45023301
-0.49861401 0.41585699 0.45023301
-0.49964601 0.450232 0.45023301
-0.491781 0.48460701 0.45023301
-0.47790501 0.49888799 0.45023301
-0.44352999 0.50677902 0.45023301
-0.40915501 0.50504398 0.45023301
-0.37478 0.50419801 0.45023301
-0.34040499 0.50386 0.45023301
-0.30603001 0.503582 0.45023301
-0.27165499 0.503766 0.45023301
-0.23728 0.503784 0.45023301
-0.202905 0.50383002 0.45023301
-0.16853 0.50387198 0.45023301
-0.13415501 0.503905 0.45023301
-0.099780001 0.50395 0.45023301
-0.065404996 0.503784 0.45023301
-0.031029999 0.50396699 0.45023301
0.0033450101 0.50394303 0.45023301
0.50393403 0.037732001 0.45023301
0.50393403 0.072107002 0.45023301
0.50393498 0.106482 0.45023301
0.50394797 0.140857 0.45023301
0.503748 0.17523199 0.45023301
0.503883 0.20960701 0.45023301
0.50379401 0.243982 0.45023301
0.50373501 0.278357 0.45023301
0.037719999 0.50393701 0.45023301
0.072094999 0.50393403 0.45023301
0.10647 0.50393498 0.45023301
0.140845 0.50395 0.45023301
0.17522 0.50374901 0.45023301
0.20959499 0.50388801 0.45023301
0.24397001 0.50380099 0.45023301
0.27834499 0.50374198 0.45023301
0.50371802 0.31273201 0.45023301
0.50379902 0.34710699 0.45023301
0.504103 0.38148201 0.45023301
0.504574 0.41585699 0.45023301
0.31272 0.50372797 0.45023301
0.34709501 0.50381202 0.45023301
0.38146999 0.50411302 0.45023301
0.41584501 0.50458503 0.45023301
0.505373 0.450232 0.45023301
0.49613801 0.48460701 0.45023301
0.45021999 0.50538599 0.45023301
0.484595 0.49614999 0.45023301
-0.47790501 -0.484725 0.48460799
-0.48473501 -0.47789299 0.48460799
-0.44352999 -0.49349901 0.48460799
-0.40915501 -0.49065301 0.48460799
-0.493505 -0.44351801 0.48460799
-0.49066299 -0.409143 0.48460799
-0.37478 -0.48948199 0.48460799
-0.34040499 -0.489214 0.48460799
-0.30603001 -0.48853201 0.48460799
-0.27165499 -0.48915201 0.48460799
-0.489499 -0.37476799 0.48460799
-0.48922801 -0.34039301 0.48460799
-0.48854101 -0.30601799 0.48460799
-0.489169 -0.27164301 0.48460799
-0.23728 -0.489048 0.48460799
-0.202905 -0.48914 0.48460799
-0.16853 -0.48920301 0.48460799
-0.13415501 -0.48922601 0.48460799
-0.099780001 -0.489427 0.48460799
-0.065404996 -0.488864 0.48460799
-0.031029999 -0.48945099 0.48460799
0.0033450101 -0.48927 0.48460799
-0.48906499 -0.237268 0.48460799
-0.489149 -0.202893 0.48460799
-0.489216 -0.16851801 0.48460799
-0.489245 -0.13414299 0.48460799
-0.48944199 -0.099767998 0.48460799
-0.48887801 -0.065393001 0.48460799
-0.48947001 -0.031018 0.48460799
-0.489288 0.0033569899 0.48460799
0.037719999 -0.489288 0.48460799
0.072094999 -0.48928601 0.48460799
0.10647 -0.489263 0.48460799
0.140845 -0.48943701 0.48460799
0.17522 -0.48882899 0.48460799
0.20959499 -0.48934999 0.48460799
0.24397001 -0.48908299 0.48460799
0.27834499 -0.489007 0.48460799
0.31272 -0.48896199 0.48460799
0.34709501 -0.48902899 0.48460799
0.38146999 -0.48955801 0.48460799
0.41584501 -0.489912 0.48460799
0.45021999 -0.491768 0.48460799
0.484595 -0.48099899 0.48460799
0.487589 -0.47789299 0.48460799
0.497922 -0.44351801 0.48460799
0.495231 -0.409143 0.48460799
0.49400601 -0.37476799 0.48460799
0.49365601 -0.34039301 0.48460799
0.492955 -0.30601799 0.48460799
0.493536 -0.27164301 0.48460799
0.493444 -0.237268 0.48460799
0.493514 -0.202893 0.48460799
0.49357599 -0.16851801 0.48460799
0.493613 -0.13414299 0.48460799
0.49378699 -0.099767998 0.48460799
0.49323699 -0.065393001 0.48460799
0.49381101 -0.031018 0.48460799
0.49364901 0.0033569899 0.48460799
-0.48930201 0.037732001 0.48460799
-0.489306 0.072107002 0.48460799
-0.489283 0.106482 0.48460799
-0.48944801 0.140857 0.48460799
-0.488841 0.17523199 0.48460799
-0.489362 0.20960701 0.48460799
-0.48909301 0.243982 0.48460799
-0.489023 0.278357 0.48460799
-0.48897201 0.31273201 0.48460799
-0.489032 0.34710699 0.48460799
-0.48957101 0.38148201 0.48460799
-0.489923 0.41585699 0.48460799
-0.49177301 0.450232 0.48460799
-0.48100901 0.48460701 0.48460799
-0.47790501 0.4876 0.48460799
-0.44352999 0.49793401 0.48460799
-0.40915501 0.49523801 0.48460799
-0.37478 0.494008 0.48460799
-0.34040499 0.493662 0.48460799
-0.30603001 0.49296299 0.48460799
-0.27165499 0.49353701 0.48460799
-0.23728 0.49344501 0.48460799
-0.202905 0.493523 0.48460799
-0.16853 0.49357799 0.48460799
-0.13415501 0.493608 0.48460799
-0.099780001 0.49378899 0.48460799
-0.065404996 0.49324399 0.48460799
-0.031029999 0.49381399 0.48460799
0.0033450101 0.493653 0.48460799
0.49365601 0.037732001 0.48460799
0.49366099 0.072107002 0.48460799
0.49364901 0.106482 0.48460799
0.49380001 0.140857 0.48460799
0.49321699 0.17523199 0.48460799
0.49372 0.20960701 0.48460799
0.49347299 0.243982 0.48460799
0.49340299 0.278357 0.48460799
0.037719999 0.49366 0.48460799
0.072094999 0.49365801 0.48460799
0.10647 0.49364701 0.48460799
0.140845 0.49380001 0.48460799
0.17522 0.49321401 0.48460799
0.20959499 0.49372399 0.48460799
0.24397001 0.49348199 0.48460799
0.27834499 0.49340799 0.48460799
0.493377 0.31273201 0.48460799
0.49348801 0.34710699 0.48460799
0.494066 0.38148201 0.48460799
0.49449399 0.41585699 0.48460799
0.31272 0.49338901 0.48460799
0.34709501 0.49350601 0.48460799
0.38146999 0.494075 0.48460799
0.41584501 0.49450299 0.48460799
0.484595 0.483886 0.48460799
0.48387399 0.48460701 0.48460799
0.49612999 0.450232 0.48460799
0.45021999 0.49614599 0.48460799
0.484595 0.48460701 0.48388699
-0.47790501 -0.47789299 0.49129599
-0.44352999 -0.47789299 0.50067902
-0.40915501 -0.47789299 0.497944
-0.47790501 -0.44351801 0.50067502
-0.47790501 -0.409143 0.497942
-0.44352999 -0.44351801 0.508187
-0.40915501 -0.44351801 0.50652301
-0.44352999 -0.409143 0.50652301
-0.40915501 -0.409143 0.50517303
-0.37478 -0.47789299 0.49673599
-0.34040499 -0.47789299 0.496454
-0.30603001 -0.47789299 0.49574301
-0.27165499 -0.47789299 0.496393
-0.37478 -0.44351801 0.50570798
-0.34040499 -0.44351801 0.50537598
-0.37478 -0.409143 0.504475
-0.34040499 -0.409143 0.504188
-0.30603001 -0.44351801 0.50516301
-0.27165499 -0.44351801 0.50532699
-0.30603001 -0.409143 0.50406998
-0.27165499 -0.409143 0.504161
-0.47790501 -0.37476799 0.496741
-0.47790501 -0.34039301 0.496456
-0.44352999 -0.37476799 0.50570899
-0.40915501 -0.37476799 0.504475
-0.44352999 -0.34039301 0.50537699
-0.40915501 -0.34039301 0.504188
-0.47790501 -0.30601799 0.49574
-0.47790501 -0.27164301 0.49639699
-0.44352999 -0.30601799 0.50516301
-0.40915501 -0.30601799 0.504071
-0.44352999 -0.27164301 0.50532901
-0.40915501 -0.27164301 0.50416303
-0.37478 -0.37476799 0.503883
-0.34040499 -0.37476799 0.50367302
-0.37478 -0.34039301 0.50367397
-0.34040499 -0.34039301 0.50352699
-0.30603001 -0.37476799 0.50358099
-0.27165499 -0.37476799 0.50369298
-0.30603001 -0.34039301 0.50345999
-0.27165499 -0.34039301 0.50359398
-0.37478 -0.30601799 0.503582
-0.34040499 -0.30601799 0.503461
-0.37478 -0.27164301 0.50369501
-0.34040499 -0.27164301 0.50359601
-0.30603001 -0.30601799 0.50342703
-0.27165499 -0.30601799 0.50356901
-0.30603001 -0.27164301 0.50357002
-0.27165499 -0.27164301 0.503721
-0.23728 -0.47789299 0.49628901
-0.202905 -0.47789299 0.49638501
-0.16853 -0.47789299 0.496452
-0.13415501 -0.47789299 0.49647999
-0.23728 -0.44351801 0.50538403
-0.202905 -0.44351801 0.505431
-0.23728 -0.409143 0.50421703
-0.202905 -0.409143 0.50428098
-0.16853 -0.44351801 0.50548202
-0.13415501 -0.44351801 0.50552797
-0.16853 -0.409143 0.50433499
-0.13415501 -0.409143 0.50436598
-0.099780001 -0.47789299 0.496687
-0.065404996 -0.47789299 0.496097
-0.031029999 -0.47789299 0.49671099
0.0033450101 -0.47789299 0.49652699
-0.099780001 -0.44351801 0.505548
-0.065404996 -0.44351801 0.50542903
-0.099780001 -0.409143 0.50439101
-0.065404996 -0.409143 0.50435299
-0.031029999 -0.44351801 0.50556701
0.0033450101 -0.44351801 0.50556898
-0.031029999 -0.409143 0.50441402
0.0033450101 -0.409143 0.50441498
-0.23728 -0.37476799 0.50374299
-0.202905 -0.37476799 0.50381398
-0.23728 -0.34039301 0.50364703
-0.202905 -0.34039301 0.503721
-0.16853 -0.37476799 0.503869
-0.13415501 -0.37476799 0.50389701
-0.16853 -0.34039301 0.50377703
-0.13415501 -0.34039301 0.50380498
-0.23728 -0.30601799 0.50363702
-0.202905 -0.30601799 0.50371599
-0.23728 -0.27164301 0.50378698
-0.202905 -0.27164301 0.50386602
-0.16853 -0.30601799 0.50377601
-0.13415501 -0.30601799 0.50380802
-0.16853 -0.27164301 0.50392503
-0.13415501 -0.27164301 0.50395399
-0.099780001 -0.37476799 0.50393599
-0.065404996 -0.37476799 0.50389498
-0.099780001 -0.34039301 0.50384998
-0.065404996 -0.34039301 0.50380403
-0.031029999 -0.37476799 0.50396001
0.0033450101 -0.37476799 0.50394899
-0.031029999 -0.34039301 0.50387299
0.0033450101 -0.34039301 0.50385702
-0.099780001 -0.30601799 0.50384802
-0.065404996 -0.30601799 0.50381202
-0.099780001 -0.27164301 0.50399601
-0.065404996 -0.27164301 0.50395697
-0.031029999 -0.30601799 0.50387299
0.0033450101 -0.30601799 0.50385898
-0.031029999 -0.27164301 0.50401801
0.0033450101 -0.27164301 0.50400198
-0.47790501 -0.237268 0.49629501
-0.47790501 -0.202893 0.49638301
-0.44352999 -0.237268 0.50538701
-0.40915501 -0.237268 0.504219
-0.44352999 -0.202893 0.50543201
-0.40915501 -0.202893 0.50428498
-0.47790501 -0.16851801 0.49645299
-0.47790501 -0.13414299 0.49648699
-0.44352999 -0.16851801 0.505485
-0.40915501 -0.16851801 0.50433898
-0.44352999 -0.13414299 0.50553298
-0.40915501 -0.13414299 0.50436997
-0.37478 -0.237268 0.50374597
-0.34040499 -0.237268 0.50365001
-0.37478 -0.202893 0.50381798
-0.34040499 -0.202893 0.50372499
-0.30603001 -0.237268 0.50363898
-0.27165499 -0.237268 0.50378799
-0.30603001 -0.202893 0.50371897
-0.27165499 -0.202893 0.503869
-0.37478 -0.16851801 0.503874
-0.34040499 -0.16851801 0.50378197
-0.37478 -0.13414299 0.50390297
-0.34040499 -0.13414299 0.503811
-0.30603001 -0.16851801 0.50378102
-0.27165499 -0.16851801 0.50392801
-0.30603001 -0.13414299 0.50381303
-0.27165499 -0.13414299 0.50395799
-0.47790501 -0.099767998 0.49669001
-0.47790501 -0.065393001 0.496099
-0.44352999 -0.099767998 0.50555199
-0.40915501 -0.099767998 0.50439602
-0.44352999 -0.065393001 0.50543201
-0.40915501 -0.065393001 0.50435901
-0.47790501 -0.031018 0.49671701
-0.47790501 0.0033569899 0.49653301
-0.44352999 -0.031018 0.50557202
-0.40915501 -0.031018 0.50441998
-0.44352999 0.0033569899 0.50557399
-0.40915501 0.0033569899 0.504421
-0.37478 -0.099767998 0.50394201
-0.34040499 -0.099767998 0.503856
-0.37478 -0.065393001 0.503901
-0.34040499 -0.065393001 0.503811
-0.30603001 -0.099767998 0.50385398
-0.27165499 -0.099767998 0.50400102
-0.30603001 -0.065393001 0.50381899
-0.27165499 -0.065393001 0.50396299
-0.37478 -0.031018 0.50396699
-0.34040499 -0.031018 0.50388002
-0.37478 0.0033569899 0.50395602
-0.34040499 0.0033569899 0.50386399
-0.30603001 -0.031018 0.50387901
-0.27165499 -0.031018 0.50402403
-0.30603001 0.0033569899 0.50386602
-0.27165499 0.0033569899 0.504008
-0.23728 -0.237268 0.50386298
-0.202905 -0.237268 0.50394398
-0.23728 -0.202893 0.50394499
-0.202905 -0.202893 0.50402701
-0.16853 -0.237268 0.504004
-0.13415501 -0.237268 0.50403398
-0.16853 -0.202893 0.50408602
-0.13415501 -0.202893 0.504116
-0.23728 -0.16851801 0.50400603
-0.202905 -0.16851801 0.50408697
-0.23728 -0.13414299 0.50403798
-0.202905 -0.13414299 0.50411803
-0.16853 -0.16851801 0.50414598
-0.13415501 -0.16851801 0.50417501
-0.16853 -0.13414299 0.50417602
-0.13415501 -0.13414299 0.504206
-0.099780001 -0.237268 0.50407201
-0.065404996 -0.237268 0.50404102
-0.099780001 -0.202893 0.504152
-0.065404996 -0.202893 0.50412399
-0.031029999 -0.237268 0.504094
0.0033450101 -0.237268 0.50408101
-0.031029999 -0.202893 0.50417298
0.0033450101 -0.202893 0.50415999
-0.099780001 -0.16851801 0.50421101
-0.065404996 -0.16851801 0.50418299
-0.099780001 -0.13414299 0.50423902
-0.065404996 -0.13414299 0.50421399
-0.031029999 -0.16851801 0.50423002
0.0033450101 -0.16851801 0.50421798
-0.031029999 -0.13414299 0.50425702
0.0033450101 -0.13414299 0.504246
-0.23728 -0.099767998 0.504076
-0.202905 -0.099767998 0.50415599
-0.23728 -0.065393001 0.50404602
-0.202905 -0.065393001 0.50412703
-0.16853 -0.099767998 0.50421298
-0.13415501 -0.099767998 0.50423998
-0.16853 -0.065393001 0.50418597
-0.13415501 -0.065393001 0.50421602
-0.23728 -0.031018 0.50409901
-0.202905 -0.031018 0.50417697
-0.23728 0.0033569899 0.50408602
-0.202905 0.0033569899 0.50416398
-0.16853 -0.031018 0.504233
-0.13415501 -0.031018 0.50425899
-0.16853 0.0033569899 0.50422102
-0.13415501 0.0033569899 0.50424802
-0.099780001 -0.099767998 0.50427401
-0.065404996 -0.099767998 0.504246
-0.099780001 -0.065393001 0.504246
-0.065404996 -0.065393001 0.504224
-0.031029999 -0.099767998 0.50429201
0.0033450101 -0.099767998 0.504278
-0.031029999 -0.065393001 0.504264
0.0033450101 -0.065393001 0.50425398
-0.099780001 -0.031018 0.50429302
-0.065404996 -0.031018 0.504264
-0.099780001 0.0033569899 0.50427902
-0.065404996 0.0033569899 0.50425398
-0.031029999 -0.031018 0.504309
0.0033450101 -0.031018 0.50429499
-0.031029999 0.0033569899 0.504296
0.0033450101 0.0033569899 0.50428301
0.037719999 -0.47789299 0.49654201
0.072094999 -0.47789299 0.49654001
0.10647 -0.47789299 0.496521
0.140845 -0.47789299 0.49669701
0.037719999 -0.44351801 0.50555497
0.072094999 -0.44351801 0.50555301
0.037719999 -0.409143 0.50441903
0.072094999 -0.409143 0.50441402
0.10647 -0.44351801 0.50556099
0.140845 -0.44351801 0.505548
0.10647 -0.409143 0.50439602
0.140845 -0.409143 0.50437599
0.17522 -0.47789299 0.496061
0.20959499 -0.47789299 0.49660501
0.24397001 -0.47789299 0.496328
0.27834499 -0.47789299 0.496243
0.17522 -0.44351801 0.50538701
0.20959499 -0.44351801 0.50547397
0.17522 -0.409143 0.50428599
0.20959499 -0.409143 0.50428802
0.24397001 -0.44351801 0.50540298
0.27834499 -0.44351801 0.50532103
0.24397001 -0.409143 0.50421399
0.27834499 -0.409143 0.50415099
0.037719999 -0.37476799 0.50395602
0.072094999 -0.37476799 0.50394797
0.037719999 -0.34039301 0.50386298
0.072094999 -0.34039301 0.50385398
0.10647 -0.37476799 0.50392401
0.140845 -0.37476799 0.50391102
0.10647 -0.34039301 0.50382799
0.140845 -0.34039301 0.50381702
0.037719999 -0.30601799 0.50386399
0.072094999 -0.30601799 0.50385302
0.037719999 -0.27164301 0.50400698
0.072094999 -0.27164301 0.50399601
0.10647 -0.30601799 0.50382602
0.140845 -0.30601799 0.50380898
0.10647 -0.27164301 0.503968
0.140845 -0.27164301 0.50395399
0.17522 -0.37476799 0.50381202
0.20959499 -0.37476799 0.503815
0.17522 -0.34039301 0.50371099
0.20959499 -0.34039301 0.50371599
0.24397001 -0.37476799 0.50372398
0.27834499 -0.37476799 0.50365603
0.24397001 -0.34039301 0.50361401
0.27834499 -0.34039301 0.503537
0.17522 -0.30601799 0.503708
0.20959499 -0.30601799 0.50369799
0.17522 -0.27164301 0.503851
0.20959499 -0.27164301 0.50384402
0.24397001 -0.30601799 0.50359201
0.27834499 -0.30601799 0.50349998
0.24397001 -0.27164301 0.50373501
0.27834499 -0.27164301 0.50364101
0.31272 -0.47789299 0.49619499
0.34709501 -0.47789299 0.496268
0.38146999 -0.47789299 0.49681801
0.41584501 -0.47789299 0.497161
0.31272 -0.44351801 0.50528401
0.34709501 -0.44351801 0.50535202
0.31272 -0.409143 0.50410002
0.34709501 -0.409143 0.50411302
0.38146999 -0.44351801 0.50559902
0.41584501 -0.44351801 0.50607502
0.38146999 -0.409143 0.50429201
0.41584501 -0.409143 0.50467801
0.45021999 -0.47789299 0.49888599
0.484595 -0.47789299 0.487602
0.45021999 -0.44351801 0.50678098
0.484595 -0.44351801 0.497935
0.45021999 -0.409143 0.50504899
0.484595 -0.409143 0.495244
0.31272 -0.37476799 0.50358301
0.34709501 -0.37476799 0.50355297
0.31272 -0.34039301 0.50344402
0.34709501 -0.34039301 0.50337797
0.38146999 -0.37476799 0.50367498
0.41584501 -0.37476799 0.50393403
0.38146999 -0.34039301 0.50344902
0.41584501 -0.34039301 0.50362003
0.31272 -0.30601799 0.50338501
0.34709501 -0.30601799 0.50329298
0.31272 -0.27164301 0.50352103
0.34709501 -0.27164301 0.50341702
0.38146999 -0.30601799 0.50332499
0.41584501 -0.30601799 0.503456
0.38146999 -0.27164301 0.50343502
0.41584501 -0.27164301 0.50355297
0.45021999 -0.37476799 0.504206
0.484595 -0.37476799 0.49401999
0.45021999 -0.34039301 0.50386798
0.484595 -0.34039301 0.49366999
0.45021999 -0.30601799 0.50358897
0.484595 -0.30601799 0.49296799
0.45021999 -0.27164301 0.50377703
0.484595 -0.27164301 0.49355
0.037719999 -0.237268 0.50408399
0.072094999 -0.237268 0.50407302
0.037719999 -0.202893 0.50416398
0.072094999 -0.202893 0.50415099
0.10647 -0.237268 0.50404501
0.140845 -0.237268 0.504026
0.10647 -0.202893 0.50412399
0.140845 -0.202893 0.50410402
0.037719999 -0.16851801 0.50422102
0.072094999 -0.16851801 0.50420803
0.037719999 -0.13414299 0.50424802
0.072094999 -0.13414299 0.50423598
0.10647 -0.16851801 0.50418103
0.140845 -0.16851801 0.50415999
0.10647 -0.13414299 0.50420898
0.140845 -0.13414299 0.50418597
0.17522 -0.237268 0.50392902
0.20959499 -0.237268 0.50391197
0.17522 -0.202893 0.50400901
0.20959499 -0.202893 0.50398898
0.24397001 -0.237268 0.50380301
0.27834499 -0.237268 0.503703
0.24397001 -0.202893 0.50387901
0.27834499 -0.202893 0.50377703
0.17522 -0.16851801 0.504067
0.20959499 -0.16851801 0.50404501
0.17522 -0.13414299 0.50409698
0.20959499 -0.13414299 0.504071
0.24397001 -0.16851801 0.50393403
0.27834499 -0.16851801 0.50383103
0.24397001 -0.13414299 0.50396198
0.27834499 -0.13414299 0.50385797
0.037719999 -0.099767998 0.50428098
0.072094999 -0.099767998 0.504269
0.037719999 -0.065393001 0.504255
0.072094999 -0.065393001 0.50424302
0.10647 -0.099767998 0.50424099
0.140845 -0.099767998 0.50422198
0.10647 -0.065393001 0.504215
0.140845 -0.065393001 0.50419098
0.037719999 -0.031018 0.50429797
0.072094999 -0.031018 0.50428599
0.037719999 0.0033569899 0.50428599
0.072094999 0.0033569899 0.50427401
0.10647 -0.031018 0.50425798
0.140845 -0.031018 0.50423801
0.10647 0.0033569899 0.504246
0.140845 0.0033569899 0.50422502
0.17522 -0.099767998 0.50413001
0.20959499 -0.099767998 0.50410903
0.17522 -0.065393001 0.504103
0.20959499 -0.065393001 0.50407302
0.24397001 -0.099767998 0.50399899
0.27834499 -0.099767998 0.50389802
0.24397001 -0.065393001 0.50396401
0.27834499 -0.065393001 0.503856
0.17522 -0.031018 0.50414801
0.20959499 -0.031018 0.50412703
0.17522 0.0033569899 0.50413698
0.20959499 0.0033569899 0.50411099
0.24397001 -0.031018 0.50401801
0.27834499 -0.031018 0.50391698
0.24397001 0.0033569899 0.504004
0.27834499 0.0033569899 0.50390202
0.31272 -0.237268 0.503573
0.34709501 -0.237268 0.503461
0.31272 -0.202893 0.503645
0.34709501 -0.202893 0.503528
0.38146999 -0.237268 0.50346702
0.41584501 -0.237268 0.50358999
0.38146999 -0.202893 0.50352901
0.41584501 -0.202893 0.50364602
0.31272 -0.16851801 0.50369799
0.34709501 -0.16851801 0.50357902
0.31272 -0.13414299 0.50372303
0.34709501 -0.13414299 0.50360298
0.38146999 -0.16851801 0.50357598
0.41584501 -0.16851801 0.503694
0.38146999 -0.13414299 0.50359797
0.41584501 -0.13414299 0.503721
0.45021999 -0.237268 0.50379503
0.484595 -0.237268 0.493458
0.45021999 -0.202893 0.50383902
0.484595 -0.202893 0.49352801
0.45021999 -0.16851801 0.503883
0.484595 -0.16851801 0.49358901
0.45021999 -0.13414299 0.50392002
0.484595 -0.13414299 0.493626
0.31272 -0.099767998 0.50376397
0.34709501 -0.099767998 0.50364399
0.31272 -0.065393001 0.50371701
0.34709501 -0.065393001 0.50359303
0.38146999 -0.099767998 0.50364
0.41584501 -0.099767998 0.50375098
0.38146999 -0.065393001 0.50357997
0.41584501 -0.065393001 0.50368702
0.31272 -0.031018 0.50378501
0.34709501 -0.031018 0.50366497
0.31272 0.0033569899 0.50376701
0.34709501 0.0033569899 0.50364798
0.38146999 -0.031018 0.50366002
0.41584501 -0.031018 0.50377101
0.38146999 0.0033569899 0.50364298
0.41584501 0.0033569899 0.50376302
0.45021999 -0.099767998 0.50396198
0.484595 -0.099767998 0.493801
0.45021999 -0.065393001 0.50379503
0.484595 -0.065393001 0.493251
0.45021999 -0.031018 0.50397903
0.484595 -0.031018 0.49382401
0.45021999 0.0033569899 0.50395399
0.484595 0.0033569899 0.49366301
-0.47790501 0.037732001 0.49654499
-0.47790501 0.072107002 0.496548
-0.44352999 0.037732001 0.50555998
-0.40915501 0.037732001 0.50442499
-0.44352999 0.072107002 0.50555801
-0.40915501 0.072107002 0.50441903
-0.47790501 0.106482 0.496528
-0.47790501 0.140857 0.496696
-0.44352999 0.106482 0.50556499
-0.40915501 0.106482 0.50440103
-0.44352999 0.140857 0.50554901
-0.40915501 0.140857 0.50437897
-0.37478 0.037732001 0.50396299
-0.34040499 0.037732001 0.50387001
-0.37478 0.072107002 0.50395399
-0.34040499 0.072107002 0.50386
-0.30603001 0.037732001 0.50387102
-0.27165499 0.037732001 0.504013
-0.30603001 0.072107002 0.50385898
-0.27165499 0.072107002 0.50400001
-0.37478 0.106482 0.50392902
-0.34040499 0.106482 0.503833
-0.37478 0.140857 0.503914
-0.34040499 0.140857 0.50382102
-0.30603001 0.106482 0.50383103
-0.27165499 0.106482 0.50397199
-0.30603001 0.140857 0.50381202
-0.27165499 0.140857 0.50395501
-0.47790501 0.17523199 0.49606001
-0.47790501 0.20960701 0.49660501
-0.44352999 0.17523199 0.50538802
-0.40915501 0.17523199 0.504287
-0.44352999 0.20960701 0.50547397
-0.40915501 0.20960701 0.50428897
-0.47790501 0.243982 0.49632701
-0.47790501 0.278357 0.49624699
-0.44352999 0.243982 0.50540203
-0.40915501 0.243982 0.50421298
-0.44352999 0.278357 0.50532103
-0.40915501 0.278357 0.50414801
-0.37478 0.17523199 0.50381303
-0.34040499 0.17523199 0.503712
-0.37478 0.20960701 0.503815
-0.34040499 0.20960701 0.50371599
-0.30603001 0.17523199 0.503708
-0.27165499 0.17523199 0.50384998
-0.30603001 0.20960701 0.50369602
-0.27165499 0.20960701 0.503842
-0.37478 0.243982 0.50372201
-0.34040499 0.243982 0.50361103
-0.37478 0.278357 0.50365198
-0.34040499 0.278357 0.50353199
-0.30603001 0.243982 0.50358802
-0.27165499 0.243982 0.50372899
-0.30603001 0.278357 0.50349301
-0.27165499 0.278357 0.50363302
-0.23728 0.037732001 0.504089
-0.202905 0.037732001 0.50416702
-0.23728 0.072107002 0.50407702
-0.202905 0.072107002 0.50415403
-0.16853 0.037732001 0.50422299
-0.13415501 0.037732001 0.50424999
-0.16853 0.072107002 0.50421
-0.13415501 0.072107002 0.504237
-0.23728 0.106482 0.50404799
-0.202905 0.106482 0.504125
-0.23728 0.140857 0.50402701
-0.202905 0.140857 0.504103
-0.16853 0.106482 0.50418103
-0.13415501 0.106482 0.50420803
-0.16853 0.140857 0.50415802
-0.13415501 0.140857 0.50418299
-0.099780001 0.037732001 0.504282
-0.065404996 0.037732001 0.504255
-0.099780001 0.072107002 0.50426799
-0.065404996 0.072107002 0.50424099
-0.031029999 0.037732001 0.50429702
0.0033450101 0.037732001 0.50428498
-0.031029999 0.072107002 0.50428402
0.0033450101 0.072107002 0.50427198
-0.099780001 0.106482 0.50423902
-0.065404996 0.106482 0.50421298
-0.099780001 0.140857 0.50421798
-0.065404996 0.140857 0.50418597
-0.031029999 0.106482 0.50425601
0.0033450101 0.106482 0.50424302
-0.031029999 0.140857 0.504233
0.0033450101 0.140857 0.50422001
-0.23728 0.17523199 0.50392699
-0.202905 0.17523199 0.50400603
-0.23728 0.20960701 0.50390798
-0.202905 0.20960701 0.50398397
-0.16853 0.17523199 0.50406301
-0.13415501 0.17523199 0.50409102
-0.16853 0.20960701 0.50403798
-0.13415501 0.20960701 0.50406301
-0.23728 0.243982 0.50379598
-0.202905 0.243982 0.50387001
-0.23728 0.278357 0.50369298
-0.202905 0.278357 0.503766
-0.16853 0.243982 0.50392503
-0.13415501 0.243982 0.50395101
-0.16853 0.278357 0.50381899
-0.13415501 0.278357 0.50384498
-0.099780001 0.17523199 0.50412297
-0.065404996 0.17523199 0.50409502
-0.099780001 0.20960701 0.50410002
-0.065404996 0.20960701 0.50406301
-0.031029999 0.17523199 0.50414002
