# .PCD v0.7 - Point Cloud Data file format
VERSION 0.7
FIELDS x y z
SIZE 4 4 4
TYPE F F F
COUNT 1 1 1
WIDTH 1443
HEIGHT 1
VIEWPOINT 0 0 0 1 0 0 0
POINTS 1443
DATA ascii
0.10647 0.037732001 -0.49674401
0.140845 0.037732001 -0.49667999
0.10647 0.072107002 -0.49673799
0.140845 0.072107002 -0.49667501
0.037719999 0.106482 -0.49674699
0.072094999 0.106482 -0.49674201
0.037719999 0.140857 -0.49667701
0.072094999 0.140857 -0.496674
0.10647 0.106482 -0.49676099
0.140845 0.106482 -0.49669799
0.10647 0.140857 -0.49669099
0.140845 0.140857 -0.496636
0.17522 0.037732001 -0.49677199
0.20959499 0.037732001 -0.49669001
0.17522 0.072107002 -0.49676001
0.20959499 0.072107002 -0.496681
0.24397001 0.037732001 -0.496741
0.27834499 0.037732001 -0.49672499
0.24397001 0.072107002 -0.49673599
0.27834499 0.072107002 -0.49671999
0.17522 0.106482 -0.49679399
0.20959499 0.106482 -0.49670801
0.17522 0.140857 -0.49671701
0.20959499 0.140857 -0.49664
0.24397001 0.106482 -0.49676099
0.27834499 0.106482 -0.49674401
0.24397001 0.140857 -0.49669099
0.27834499 0.140857 -0.49667701
0.037719999 0.17523199 -0.49677101
0.072094999 0.17523199 -0.49676099
0.037719999 0.20960701 -0.49669501
0.072094999 0.20960701 -0.496687
0.10647 0.17523199 -0.49679101
0.140845 0.17523199 -0.49671799
0.10647 0.20960701 -0.49670899
0.140845 0.20960701 -0.496647
0.037719999 0.243982 -0.49674001
0.072094999 0.243982 -0.49673599
0.037719999 0.278357 -0.496723
0.072094999 0.278357 -0.49671999
0.10647 0.243982 -0.49675801
0.140845 0.243982 -0.49669299
0.10647 0.278357 -0.49674001
0.140845 0.278357 -0.49667799
0.17522 0.17523199 -0.49681199
0.20959499 0.17523199 -0.49672699
0.17522 0.20960701 -0.496732
0.20959499 0.20960701 -0.49665901
0.24397001 0.17523199 -0.496786
0.27834499 0.17523199 -0.49676499
0.24397001 0.20960701 -0.49670401
0.27834499 0.20960701 -0.496687
0.17522 0.243982 -0.49678501
0.20959499 0.243982 -0.49669999
0.17522 0.278357 -0.49676499
0.20959499 0.278357 -0.49668199
0.24397001 0.243982 -0.49675399
0.27834499 0.243982 -0.496739
0.24397001 0.278357 -0.496739
0.27834499 0.278357 -0.49672601
0.31272 0.037732001 -0.49673501
0.34709501 0.037732001 -0.496759
0.31272 0.072107002 -0.49673
0.34709501 0.072107002 -0.49675399
0.38146999 0.037732001 -0.49674401
0.41584501 0.037732001 -0.49688801
0.38146999 0.072107002 -0.49673101
0.41584501 0.072107002 -0.49687001
0.31272 0.106482 -0.49675
0.34709501 0.106482 -0.49677601
0.31272 0.140857 -0.49668401
0.34709501 0.140857 -0.49670699
0.38146999 0.106482 -0.496759
0.41584501 0.106482 -0.496912
0.38146999 0.140857 -0.49669299
0.41584501 0.140857 -0.49681601
0.45021999 0.037732001 -0.49676901
0.484595 0.037732001 -0.49627399
0.45021999 0.072107002 -0.49676099
0.484595 0.072107002 -0.49622899
0.45021999 0.106482 -0.496793
0.484595 0.106482 -0.496326
0.45021999 0.140857 -0.49670699
0.484595 0.140857 -0.49623501
0.31272 0.17523199 -0.49678299
0.34709501 0.17523199 -0.49680799
0.31272 0.20960701 -0.49669901
0.34709501 0.20960701 -0.496719
0.38146999 0.17523199 -0.49677899
0.41584501 0.17523199 -0.49693799
0.38146999 0.20960701 -0.49670199
0.41584501 0.20960701 -0.49684
0.31272 0.243982 -0.49674901
0.34709501 0.243982 -0.49677399
0.31272 0.278357 -0.496732
0.34709501 0.278357 -0.49675599
0.38146999 0.243982 -0.49675599
0.41584501 0.243982 -0.49690101
0.38146999 0.278357 -0.49673599
0.41584501 0.278357 -0.49686801
0.45021999 0.17523199 -0.49681801
0.484595 0.17523199 -0.49625099
0.45021999 0.20960701 -0.49672201
0.484595 0.20960701 -0.49629599
0.45021999 0.243982 -0.49678299
0.484595 0.243982 -0.496268
0.45021999 0.278357 -0.49676001
0.484595 0.278357 -0.496227
0.037719999 0.31273201 -0.49673599
0.072094999 0.31273201 -0.49673301
0.037719999 0.34710699 -0.496759
0.072094999 0.34710699 -0.49675301
0.10647 0.31273201 -0.496748
0.140845 0.31273201 -0.49668801
0.10647 0.34710699 -0.49677399
0.140845 0.34710699 -0.49670801
0.037719999 0.38148201 -0.496737
0.072094999 0.38148201 -0.49673399
0.037719999 0.41585699 -0.49689701
0.072094999 0.41585699 -0.496876
0.10647 0.38148201 -0.49675301
0.140845 0.38148201 -0.496692
0.10647 0.41585699 -0.49691901
0.140845 0.41585699 -0.496824
0.17522 0.31273201 -0.496784
0.20959499 0.31273201 -0.49669501
0.17522 0.34710699 -0.496806
0.20959499 0.34710699 -0.49671701
0.24397001 0.31273201 -0.49675
0.27834499 0.31273201 -0.49673399
0.24397001 0.34710699 -0.496773
0.27834499 0.34710699 -0.49675399
0.17522 0.38148201 -0.49678099
0.20959499 0.38148201 -0.496692
0.17522 0.41585699 -0.49694201
0.20959499 0.41585699 -0.49684799
0.24397001 0.38148201 -0.49675301
0.27834499 0.38148201 -0.49673799
0.24397001 0.41585699 -0.496907
0.27834499 0.41585699 -0.49687299
0.037719999 0.450232 -0.496766
0.072094999 0.450232 -0.49676299
0.037719999 0.48460701 -0.49629399
0.072094999 0.48460701 -0.49622199
0.10647 0.450232 -0.49677399
0.140845 0.450232 -0.49671
0.10647 0.48460701 -0.49636099
0.140845 0.48460701 -0.49624199
0.17522 0.450232 -0.49681899
0.20959499 0.450232 -0.496705
0.17522 0.48460701 -0.49623901
0.20959499 0.48460701 -0.49632999
0.24397001 0.450232 -0.496784
0.27834499 0.450232 -0.49676499
0.24397001 0.48460701 -0.496272
0.27834499 0.48460701 -0.496214
0.31272 0.31273201 -0.49673799
0.34709501 0.31273201 -0.49676499
0.31272 0.34710699 -0.496766
0.34709501 0.34710699 -0.49679399
0.38146999 0.31273201 -0.49674901
0.41584501 0.31273201 -0.496894
0.38146999 0.34710699 -0.49676901
0.41584501 0.34710699 -0.49692199
0.31272 0.38148201 -0.49674299
0.34709501 0.38148201 -0.49676701
0.31272 0.41585699 -0.496905
0.34709501 0.41585699 -0.49692801
0.38146999 0.38148201 -0.49674001
0.41584501 0.38148201 -0.496867
0.38146999 0.41585699 -0.49687701
0.41584501 0.41585699 -0.497089
0.45021999 0.31273201 -0.49677601
0.484595 0.31273201 -0.49631301
0.45021999 0.34710699 -0.496802
0.484595 0.34710699 -0.49628201
0.45021999 0.38148201 -0.496764
0.484595 0.38148201 -0.49625
0.45021999 0.41585699 -0.49694899
0.484595 0.41585699 -0.496416
0.31272 0.450232 -0.49676099
0.34709501 0.450232 -0.49679601
0.31272 0.48460701 -0.49635401
0.34709501 0.48460701 -0.496297
0.38146999 0.450232 -0.49677399
0.41584501 0.450232 -0.49692601
0.38146999 0.48460701 -0.496234
0.41584501 0.48460701 -0.49644801
0.45021999 0.450232 -0.49680799
0.484595 0.450232 -0.496243
0.45021999 0.48460701 -0.49626699
0.484595 0.48460701 -0.49595901
-0.47790501 -0.496952 -0.443517
-0.49694601 -0.47789299 -0.443517
-0.44352999 -0.49693501 -0.443517
-0.40915501 -0.496811 -0.443517
-0.496957 -0.44351801 -0.443517
-0.496865 -0.409143 -0.443517
-0.37478 -0.496831 -0.443517
-0.34040499 -0.49676099 -0.443517
-0.30603001 -0.49674499 -0.443517
-0.27165499 -0.496683 -0.443517
-0.49687001 -0.37476799 -0.443517
-0.49675599 -0.34039301 -0.443517
-0.49681199 -0.30601799 -0.443517
-0.49672499 -0.27164301 -0.443517
-0.23728 -0.49681601 -0.443517
-0.202905 -0.49669701 -0.443517
-0.16853 -0.49675599 -0.443517
-0.13415501 -0.49683401 -0.443517
-0.099780001 -0.49662501 -0.443517
-0.065404996 -0.496797 -0.443517
-0.031029999 -0.496759 -0.443517
0.0033450101 -0.49669901 -0.443517
-0.49681199 -0.237268 -0.443517
-0.49676201 -0.202893 -0.443517
-0.49678999 -0.16851801 -0.443517
-0.496822 -0.13414299 -0.443517
-0.49669701 -0.099767998 -0.443517
-0.49683499 -0.065393001 -0.443517
-0.49674901 -0.031018 -0.443517
-0.49676999 0.0033569899 -0.443517
0.037719999 -0.496741 -0.443517
0.072094999 -0.49679801 -0.443517
0.10647 -0.496714 -0.443517
0.140845 -0.49670801 -0.443517
0.17522 -0.49685001 -0.443517
0.20959499 -0.49663001 -0.443517
0.24397001 -0.49677899 -0.443517
0.27834499 -0.496811 -0.443517
0.31272 -0.49669901 -0.443517
0.34709501 -0.49677399 -0.443517
0.38146999 -0.49680901 -0.443517
0.41584501 -0.49685299 -0.443517
0.45021999 -0.49680901 -0.443517
0.484595 -0.49621499 -0.443517
0.50338501 -0.47789299 -0.443517
0.503618 -0.44351801 -0.443517
0.50357902 -0.409143 -0.443517
0.50357002 -0.37476799 -0.443517
0.503438 -0.34039301 -0.443517
0.50353199 -0.30601799 -0.443517
0.50342202 -0.27164301 -0.443517
0.50349402 -0.237268 -0.443517
0.50347197 -0.202893 -0.443517
0.50348401 -0.16851801 -0.443517
0.503501 -0.13414299 -0.443517
0.50340998 -0.099767998 -0.443517
0.50353801 -0.065393001 -0.443517
0.50342399 -0.031018 -0.443517
0.503483 0.0033569899 -0.443517
-0.496782 0.037732001 -0.443517
-0.496795 0.072107002 -0.443517
-0.49677601 0.106482 -0.443517
-0.49673599 0.140857 -0.443517
-0.496849 0.17523199 -0.443517
-0.49670401 0.20960701 -0.443517
-0.496811 0.243982 -0.443517
-0.49680299 0.278357 -0.443517
-0.49676499 0.31273201 -0.443517
-0.49681199 0.34710699 -0.443517
-0.49680999 0.38148201 -0.443517
-0.49691501 0.41585699 -0.443517
-0.49686101 0.450232 -0.443517
-0.49619201 0.48460701 -0.443517
-0.47790501 0.503398 -0.443517
-0.44352999 0.50362098 -0.443517
-0.40915501 0.503546 -0.443517
-0.37478 0.50355101 -0.443517
-0.34040499 0.50345302 -0.443517
-0.30603001 0.50349098 -0.443517
-0.27165499 0.503411 -0.443517
-0.23728 0.50349998 -0.443517
-0.202905 0.50343698 -0.443517
-0.16853 0.50348401 -0.443517
-0.13415501 0.50352299 -0.443517
-0.099780001 0.503371 -0.443517
-0.065404996 0.50352699 -0.443517
-0.031029999 0.50344902 -0.443517
0.0033450101 0.503434 -0.443517
0.50347799 0.037732001 -0.443517
0.503479 0.072107002 -0.443517
0.50348902 0.106482 -0.443517
0.50342602 0.140857 -0.443517
0.50353599 0.17523199 -0.443517
0.50341201 0.20960701 -0.443517
0.50350499 0.243982 -0.443517
0.50348401 0.278357 -0.443517
0.037719999 0.50345802 -0.443517
0.072094999 0.503488 -0.443517
0.10647 0.50345403 -0.443517
0.140845 0.50343299 -0.443517
0.17522 0.50354302 -0.443517
0.20959499 0.50337499 -0.443517
0.24397001 0.50350702 -0.443517
0.27834499 0.50350302 -0.443517
0.50347602 0.31273201 -0.443517
0.50351 0.34710699 -0.443517
0.50349301 0.38148201 -0.443517
0.50362998 0.41585699 -0.443517
0.31272 0.50344098 -0.443517
0.34709501 0.50349802 -0.443517
0.38146999 0.50350398 -0.443517
0.41584501 0.50358897 -0.443517
0.50356501 0.450232 -0.443517
0.50234401 0.48460701 -0.443517
0.45021999 0.50353903 -0.443517
0.484595 0.50236201 -0.443517
-0.47790501 -0.49703899 -0.40914199
-0.497058 -0.47789299 -0.40914199
-0.44352999 -0.496874 -0.40914199
-0.40915501 -0.49695501 -0.40914199
-0.496894 -0.44351801 -0.40914199
-0.49695399 -0.409143 -0.40914199
-0.37478 -0.49692801 -0.40914199
-0.34040499 -0.49676201 -0.40914199
-0.30603001 -0.49691901 -0.40914199
-0.27165499 -0.49679199 -0.40914199
-0.49692801 -0.37476799 -0.40914199
-0.49679399 -0.34039301 -0.40914199
-0.49691901 -0.30601799 -0.40914199
-0.49678999 -0.27164301 -0.40914199
-0.23728 -0.49682701 -0.40914199
-0.202905 -0.496851 -0.40914199
-0.16853 -0.49683201 -0.40914199
-0.13415501 -0.49682 -0.40914199
-0.099780001 -0.49680299 -0.40914199
-0.065404996 -0.496896 -0.40914199
-0.031029999 -0.49674201 -0.40914199
0.0033450101 -0.49687701 -0.40914199
-0.49685699 -0.237268 -0.40914199
-0.49685201 -0.202893 -0.40914199
-0.49683899 -0.16851801 -0.40914199
-0.49685201 -0.13414299 -0.40914199
-0.49680099 -0.099767998 -0.40914199
-0.49690399 -0.065393001 -0.40914199
-0.496777 -0.031018 -0.40914199
-0.49687299 0.0033569899 -0.40914199
0.037719999 -0.49684501 -0.40914199
0.072094999 -0.49680999 -0.40914199
0.10647 -0.496867 -0.40914199
0.140845 -0.49677199 -0.40914199
0.17522 -0.49687001 -0.40914199
0.20959499 -0.49680099 -0.40914199
0.24397001 -0.496851 -0.40914199
0.27834499 -0.49680701 -0.40914199
0.31272 -0.49686 -0.40914199
0.34709501 -0.496878 -0.40914199
0.38146999 -0.49680701 -0.40914199
0.41584501 -0.49701199 -0.40914199
0.45021999 -0.496889 -0.40914199
0.484595 -0.496328 -0.40914199
0.50350302 -0.47789299 -0.40914199
0.50359601 -0.44351801 -0.40914199
0.50365102 -0.409143 -0.40914199
0.50362599 -0.37476799 -0.40914199
0.50349498 -0.34039301 -0.40914199
0.50360501 -0.30601799 -0.40914199
0.50348198 -0.27164301 -0.40914199
0.50355703 -0.237268 -0.40914199
0.50354302 -0.202893 -0.40914199
0.50353402 -0.16851801 -0.40914199
0.50355202 -0.13414299 -0.40914199
0.50348902 -0.099767998 -0.40914199
0.50359601 -0.065393001 -0.40914199
0.503479 -0.031018 -0.40914199
0.50356197 0.0033569899 -0.40914199
-0.49684301 0.037732001 -0.40914199
-0.49683899 0.072107002 -0.40914199
-0.49687099 0.106482 -0.40914199
-0.496782 0.140857 -0.40914199
-0.49689999 0.17523199 -0.40914199
-0.49679801 0.20960701 -0.40914199
-0.49685699 0.243982 -0.40914199
-0.496838 0.278357 -0.40914199
-0.496858 0.31273201 -0.40914199
-0.496878 0.34710699 -0.40914199
-0.496838 0.38148201 -0.40914199
-0.497013 0.41585699 -0.40914199
-0.496883 0.450232 -0.40914199
-0.49637401 0.48460701 -0.40914199
-0.47790501 0.50351101 -0.40914199
-0.44352999 0.503609 -0.40914199
-0.40915501 0.50367999 -0.40914199
-0.37478 0.50365198 -0.40914199
-0.34040499 0.50349599 -0.40914199
-0.30603001 0.50363302 -0.40914199
-0.27165499 0.50351101 -0.40914199
-0.23728 0.50355899 -0.40914199
-0.202905 0.50357097 -0.40914199
-0.16853 0.50355798 -0.40914199
-0.13415501 0.50355399 -0.40914199
-0.099780001 0.503519 -0.40914199
-0.065404996 0.50361699 -0.40914199
-0.031029999 0.50348002 -0.40914199
0.0033450101 0.50359398 -0.40914199
0.503537 0.037732001 -0.40914199
0.503537 0.072107002 -0.40914199
0.50356001 0.106482 -0.40914199
0.50347799 0.140857 -0.40914199
0.50359702 0.17523199 -0.40914199
0.503488 0.20960701 -0.40914199
0.50355202 0.243982 -0.40914199
0.503537 0.278357 -0.40914199
0.037719999 0.503564 -0.40914199
0.072094999 0.50354099 -0.40914199
0.10647 0.50358403 -0.40914199
0.140845 0.50349802 -0.40914199
0.17522 0.50360101 -0.40914199
0.20959499 0.503519 -0.40914199
0.24397001 0.50357598 -0.40914199
0.27834499 0.50354099 -0.40914199
0.50354701 0.31273201 -0.40914199
0.50357199 0.34710699 -0.40914199
0.50354302 0.38148201 -0.40914199
0.503703 0.41585699 -0.40914199
0.31272 0.50357503 -0.40914199
0.34709501 0.50359601 -0.40914199
0.38146999 0.50354397 -0.40914199
0.41584501 0.50373298 -0.40914199
0.50359499 0.450232 -0.40914199
0.50252199 0.48460701 -0.40914199
0.45021999 0.50363201 -0.40914199
0.484595 0.50250697 -0.40914199
-0.47790501 -0.49700701 -0.37476701
-0.49700901 -0.47789299 -0.37476701
-0.44352999 -0.496885 -0.37476701
-0.40915501 -0.49691999 -0.37476701
-0.49689299 -0.44351801 -0.37476701
-0.496916 -0.409143 -0.37476701
-0.37478 -0.496898 -0.37476701
-0.34040499 -0.49678299 -0.37476701
-0.30603001 -0.49687901 -0.37476701
-0.27165499 -0.496764 -0.37476701
-0.49689999 -0.37476799 -0.37476701
-0.49678901 -0.34039301 -0.37476701
-0.49686801 -0.30601799 -0.37476701
-0.496766 -0.27164301 -0.37476701
-0.23728 -0.49683699 -0.37476701
-0.202905 -0.496824 -0.37476701
-0.16853 -0.49681899 -0.37476701
-0.13415501 -0.49683601 -0.37476701
-0.099780001 -0.496768 -0.37476701
-0.065404996 -0.49687099 -0.37476701
-0.031029999 -0.49677101 -0.37476701
0.0033450101 -0.49683699 -0.37476701
-0.49684101 -0.237268 -0.37476701
-0.496813 -0.202893 -0.37476701
-0.49682 -0.16851801 -0.37476701
-0.496842 -0.13414299 -0.37476701
-0.496759 -0.099767998 -0.37476701
-0.49687099 -0.065393001 -0.37476701
-0.496775 -0.031018 -0.37476701
-0.49682701 0.0033569899 -0.37476701
0.037719999 -0.496813 -0.37476701
0.072094999 -0.49681899 -0.37476701
0.10647 -0.49683899 -0.37476701
0.140845 -0.49676701 -0.37476701
0.17522 -0.496876 -0.37476701
0.20959499 -0.496773 -0.37476701
0.24397001 -0.49683601 -0.37476701
0.27834499 -0.49682301 -0.37476701
0.31272 -0.49682301 -0.37476701
0.34709501 -0.496847 -0.37476701
0.38146999 -0.496829 -0.37476701
0.41584501 -0.496975 -0.37476701
0.45021999 -0.49685299 -0.37476701
0.484595 -0.49633601 -0.37476701
0.50342399 -0.47789299 -0.37476701
0.50358403 -0.44351801 -0.37476701
0.50361401 -0.409143 -0.37476701
0.50359702 -0.37476799 -0.37476701
0.50348097 -0.34039301 -0.37476701
0.503564 -0.30601799 -0.37476701
0.503461 -0.27164301 -0.37476701
0.50353199 -0.237268 -0.37476701
0.503506 -0.202893 -0.37476701
0.50351298 -0.16851801 -0.37476701
0.50353301 -0.13414299 -0.37476701
0.503452 -0.099767998 -0.37476701
0.50356501 -0.065393001 -0.37476701
0.503465 -0.031018 -0.37476701
0.50352001 0.0033569899 -0.37476701
-0.49681601 0.037732001 -0.37476701
-0.49682301 0.072107002 -0.37476701
-0.496829 0.106482 -0.37476701
-0.49676901 0.140857 -0.37476701
-0.49687701 0.17523199 -0.37476701
-0.49676099 0.20960701 -0.37476701
-0.496838 0.243982 -0.37476701
-0.49682701 0.278357 -0.37476701
-0.49681801 0.31273201 -0.37476701
-0.49685201 0.34710699 -0.37476701
-0.49683401 0.38148201 -0.37476701
-0.49696499 0.41585699 -0.37476701
-0.496858 0.450232 -0.37476701
-0.49633899 0.48460701 -0.37476701
-0.47790501 0.50343299 -0.37476701
-0.44352999 0.50359702 -0.37476701
-0.40915501 0.50363398 -0.37476701
-0.37478 0.50361598 -0.37476701
-0.34040499 0.50349402 -0.37476701
-0.30603001 0.50358802 -0.37476701
-0.27165499 0.50347602 -0.37476701
-0.23728 0.50354898 -0.37476701
-0.202905 0.50352901 -0.37476701
-0.16853 0.50352502 -0.37476701
-0.13415501 0.503546 -0.37476701
-0.099780001 0.503474 -0.37476701
-0.065404996 0.50358099 -0.37476701
-0.031029999 0.50347799 -0.37476701
0.0033450101 0.503546 -0.37476701
0.50351 0.037732001 -0.37476701
0.50351399 0.072107002 -0.37476701
0.50352198 0.106482 -0.37476701
0.50346202 0.140857 -0.37476701
0.50357002 0.17523199 -0.37476701
0.50345498 0.20960701 -0.37476701
0.50353098 0.243982 -0.37476701
0.50351799 0.278357 -0.37476701
0.037719999 0.50352597 -0.37476701
0.072094999 0.50353003 -0.37476701
0.10647 0.50354499 -0.37476701
0.140845 0.50347298 -0.37476701
0.17522 0.50358701 -0.37476701
0.20959499 0.50347698 -0.37476701
0.24397001 0.50354302 -0.37476701
0.27834499 0.50353199 -0.37476701
0.50351202 0.31273201 -0.37476701
0.50354701 0.34710699 -0.37476701
0.50352901 0.38148201 -0.37476701
0.50365901 0.41585699 -0.37476701
0.31272 0.50353199 -0.37476701
0.34709501 0.50356102 -0.37476701
0.38146999 0.50354397 -0.37476701
0.41584501 0.50368297 -0.37476701
0.50356901 0.450232 -0.37476701
0.50245202 0.48460701 -0.37476701
0.45021999 0.50358599 -0.37476701
0.484595 0.50246501 -0.37476701
-0.47790501 -0.49688399 -0.34039199
-0.49689201 -0.47789299 -0.34039199
-0.44352999 -0.49672899 -0.34039199
-0.40915501 -0.49677801 -0.34039199
-0.496748 -0.44351801 -0.34039199
-0.49680001 -0.409143 -0.34039199
-0.37478 -0.496766 -0.34039199
-0.34040499 -0.496665 -0.34039199
-0.30603001 -0.49673301 -0.34039199
-0.27165499 -0.496647 -0.34039199
-0.496786 -0.37476799 -0.34039199
-0.496676 -0.34039301 -0.34039199
-0.49675801 -0.30601799 -0.34039199
-0.496667 -0.27164301 -0.34039199
-0.23728 -0.496705 -0.34039199
-0.202905 -0.496685 -0.34039199
-0.16853 -0.496687 -0.34039199
-0.13415501 -0.49670601 -0.34039199
-0.099780001 -0.49664301 -0.34039199
-0.065404996 -0.49673 -0.34039199
-0.031029999 -0.496649 -0.34039199
0.0033450101 -0.49669701 -0.34039199
-0.49671701 -0.237268 -0.34039199
-0.49671 -0.202893 -0.34039199
-0.49670699 -0.16851801 -0.34039199
-0.49671599 -0.13414299 -0.34039199
-0.496667 -0.099767998 -0.34039199
-0.49675 -0.065393001 -0.34039199
-0.49665999 -0.031018 -0.34039199
-0.496723 0.0033569899 -0.34039199
0.037719999 -0.496687 -0.34039199
0.072094999 -0.496692 -0.34039199
0.10647 -0.49669901 -0.34039199
0.140845 -0.49664599 -0.34039199
0.17522 -0.49673399 -0.34039199
0.20959499 -0.49664301 -0.34039199
0.24397001 -0.49670199 -0.34039199
0.27834499 -0.49669501 -0.34039199
0.31272 -0.496692 -0.34039199
0.34709501 -0.496719 -0.34039199
0.38146999 -0.496705 -0.34039199
0.41584501 -0.49681601 -0.34039199
0.45021999 -0.49671099 -0.34039199
0.484595 -0.49622899 -0.34039199
0.50331199 -0.47789299 -0.34039199
0.50344002 -0.44351801 -0.34039199
0.503497 -0.409143 -0.34039199
0.50348198 -0.37476799 -0.34039199
0.50337201 -0.34039301 -0.34039199
0.503452 -0.30601799 -0.34039199
0.50336099 -0.27164301 -0.34039199
0.503411 -0.237268 -0.34039199
0.50340301 -0.202893 -0.34039199
0.50340098 -0.16851801 -0.34039199
0.50340998 -0.13414299 -0.34039199
0.50336099 -0.099767998 -0.34039199
0.503443 -0.065393001 -0.34039199
0.50335401 -0.031018 -0.34039199
0.503416 0.0033569899 -0.34039199
-0.49670801 0.037732001 -0.34039199
-0.496703 0.072107002 -0.34039199
-0.49672201 0.106482 -0.34039199
-0.49666399 0.140857 -0.34039199
-0.49674699 0.17523199 -0.34039199
-0.49666801 0.20960701 -0.34039199
-0.49672201 0.243982 -0.34039199
-0.496705 0.278357 -0.34039199
-0.49671599 0.31273201 -0.34039199
-0.496739 0.34710699 -0.34039199
-0.496719 0.38148201 -0.34039199
-0.49684101 0.41585699 -0.34039199
-0.49673301 0.450232 -0.34039199
-0.49623799 0.48460701 -0.34039199
-0.47790501 0.50332499 -0.34039199
-0.44352999 0.50345099 -0.34039199
-0.40915501 0.50349897 -0.34039199
-0.37478 0.503488 -0.34039199
-0.34040499 0.50338602 -0.34039199
-0.30603001 0.50345403 -0.34039199
-0.27165499 0.50336701 -0.34039199
-0.23728 0.50342298 -0.34039199
-0.202905 0.50340497 -0.34039199
-0.16853 0.50340903 -0.34039199
-0.13415501 0.503425 -0.34039199
-0.099780001 0.50336301 -0.34039199
-0.065404996 0.50344998 -0.34039199
-0.031029999 0.50336999 -0.34039199
0.0033450101 0.50341499 -0.34039199
0.50340098 0.037732001 -0.34039199
0.50339699 0.072107002 -0.34039199
0.50341499 0.106482 -0.34039199
0.50335801 0.140857 -0.34039199
0.50344002 0.17523199 -0.34039199
0.503362 0.20960701 -0.34039199
0.503416 0.243982 -0.34039199
0.50340003 0.278357 -0.34039199
0.037719999 0.50340599 -0.34039199
0.072094999 0.503411 -0.34039199
0.10647 0.50341898 -0.34039199
0.140845 0.50336802 -0.34039199
0.17522 0.50345302 -0.34039199
0.20959499 0.50336301 -0.34039199
0.24397001 0.50342399 -0.34039199
0.27834499 0.50341499 -0.34039199
0.50340998 0.31273201 -0.34039199
0.50343198 0.34710699 -0.34039199
0.503416 0.38148201 -0.34039199
0.50353402 0.41585699 -0.34039199
0.31272 0.50341201 -0.34039199
0.34709501 0.503438 -0.34039199
0.38146999 0.50343001 -0.34039199
0.41584501 0.50353199 -0.34039199
0.503447 0.450232 -0.34039199
0.50234699 0.48460701 -0.34039199
0.45021999 0.50344801 -0.34039199
0.484595 0.50235999 -0.34039199
-0.47790501 -0.49697101 -0.30601701
-0.49698099 -0.47789299 -0.30601701
-0.44352999 -0.49684599 -0.30601701
-0.40915501 -0.49690101 -0.30601701
-0.49685299 -0.44351801 -0.30601701
-0.496905 -0.409143 -0.30601701
-0.37478 -0.49687299 -0.30601701
-0.34040499 -0.49674201 -0.30601701
-0.30603001 -0.49683601 -0.30601701
-0.27165499 -0.49673 -0.30601701
-0.496878 -0.37476799 -0.30601701
-0.49675599 -0.34039301 -0.30601701
-0.496842 -0.30601799 -0.30601701
-0.496737 -0.27164301 -0.30601701
-0.23728 -0.49679101 -0.30601701
-0.202905 -0.49678001 -0.30601701
-0.16853 -0.49677601 -0.30601701
-0.13415501 -0.49678901 -0.30601701
-0.099780001 -0.496728 -0.30601701
-0.065404996 -0.49682701 -0.30601701
-0.031029999 -0.49672499 -0.30601701
0.0033450101 -0.496795 -0.30601701
-0.49680299 -0.237268 -0.30601701
-0.49678501 -0.202893 -0.30601701
-0.496784 -0.16851801 -0.30601701
-0.49680099 -0.13414299 -0.30601701
-0.49673599 -0.099767998 -0.30601701
-0.49683499 -0.065393001 -0.30601701
-0.49673599 -0.031018 -0.30601701
-0.49680099 0.0033569899 -0.30601701
0.037719999 -0.496777 -0.30601701
0.072094999 -0.49677399 -0.30601701
0.10647 -0.496793 -0.30601701
0.140845 -0.49672699 -0.30601701
0.17522 -0.49682599 -0.30601701
0.20959499 -0.49673101 -0.30601701
0.24397001 -0.49679399 -0.30601701
0.27834499 -0.49677601 -0.30601701
0.31272 -0.49678501 -0.30601701
0.34709501 -0.496815 -0.30601701
0.38146999 -0.496793 -0.30601701
0.41584501 -0.49694499 -0.30601701
0.45021999 -0.496824 -0.30601701
0.484595 -0.49628201 -0.30601701
0.503362 -0.47789299 -0.30601701
0.50354803 -0.44351801 -0.30601701
0.50359702 -0.409143 -0.30601701
0.503573 -0.37476799 -0.30601701
0.50344902 -0.34039301 -0.30601701
0.50353098 -0.30601799 -0.30601701
0.50342703 -0.27164301 -0.30601701
0.50349301 -0.237268 -0.30601701
0.50347501 -0.202893 -0.30601701
0.503474 -0.16851801 -0.30601701
0.50349098 -0.13414299 -0.30601701
0.50342602 -0.099767998 -0.30601701
0.50352401 -0.065393001 -0.30601701
0.50342703 -0.031018 -0.30601701
0.50348902 0.0033569899 -0.30601701
-0.496784 0.037732001 -0.30601701
-0.496786 0.072107002 -0.30601701
-0.49680099 0.106482 -0.30601701
-0.49673501 0.140857 -0.30601701
-0.49683699 0.17523199 -0.30601701
-0.496737 0.20960701 -0.30601701
-0.49680099 0.243982 -0.30601701
-0.49678901 0.278357 -0.30601701
-0.496793 0.31273201 -0.30601701
-0.496822 0.34710699 -0.30601701
-0.49680501 0.38148201 -0.30601701
-0.49695 0.41585699 -0.30601701
-0.49682799 0.450232 -0.30601701
-0.49629301 0.48460701 -0.30601701
-0.47790501 0.50337499 -0.30601701
-0.44352999 0.50356001 -0.30601701
-0.40915501 0.50361502 -0.30601701
-0.37478 0.503591 -0.30601701
-0.34040499 0.50345701 -0.30601701
-0.30603001 0.503546 -0.30601701
-0.27165499 0.50344199 -0.30601701
-0.23728 0.50350201 -0.30601701
-0.202905 0.50348997 -0.30601701
-0.16853 0.50348902 -0.30601701
-0.13415501 0.503501 -0.30601701
-0.099780001 0.50343901 -0.30601701
-0.065404996 0.50353801 -0.30601701
-0.031029999 0.50343698 -0.30601701
0.0033450101 0.50350398 -0.30601701
0.50347298 0.037732001 -0.30601701
0.50347602 0.072107002 -0.30601701
0.50348902 0.106482 -0.30601701
0.503425 0.140857 -0.30601701
0.503528 0.17523199 -0.30601701
0.50342703 0.20960701 -0.30601701
0.50349098 0.243982 -0.30601701
0.50348002 0.278357 -0.30601701
0.037719999 0.50348902 -0.30601701
0.072094999 0.50348502 -0.30601701
0.10647 0.50350302 -0.30601701
0.140845 0.50343901 -0.30601701
0.17522 0.50353801 -0.30601701
0.20959499 0.50344199 -0.30601701
0.24397001 0.50350702 -0.30601701
0.27834499 0.50348997 -0.30601701
0.50348198 0.31273201 -0.30601701
0.50351298 0.34710699 -0.30601701
0.50350201 0.38148201 -0.30601701
0.50363898 0.41585699 -0.30601701
0.31272 0.50349599 -0.30601701
0.34709501 0.50352699 -0.30601701
0.38146999 0.50351101 -0.30601701
0.41584501 0.50365502 -0.30601701
0.50353801 0.450232 -0.30601701
0.50235099 0.48460701 -0.30601701
0.45021999 0.50355601 -0.30601701
0.484595 0.50235897 -0.30601701
-0.47790501 -0.49687701 -0.271642
-0.496885 -0.47789299 -0.271642
-0.44352999 -0.49671999 -0.271642
-0.40915501 -0.49676999 -0.271642
-0.49674001 -0.44351801 -0.271642
-0.496782 -0.409143 -0.271642
-0.37478 -0.49675599 -0.271642
-0.34040499 -0.496654 -0.271642
-0.30603001 -0.49672499 -0.271642
-0.27165499 -0.496638 -0.271642
-0.49676901 -0.37476799 -0.271642
-0.496665 -0.34039301 -0.271642
-0.49673301 -0.30601799 -0.271642
-0.49664801 -0.27164301 -0.271642
-0.23728 -0.49669001 -0.271642
-0.202905 -0.49667701 -0.271642
-0.16853 -0.49667701 -0.271642
-0.13415501 -0.49669099 -0.271642
-0.099780001 -0.49663699 -0.271642
-0.065404996 -0.49671799 -0.271642
-0.031029999 -0.496636 -0.271642
0.0033450101 -0.49668899 -0.271642
-0.496703 -0.237268 -0.271642
-0.496687 -0.202893 -0.271642
-0.49668899 -0.16851801 -0.271642
-0.49670199 -0.13414299 -0.271642
-0.49664599 -0.099767998 -0.271642
-0.49673 -0.065393001 -0.271642
-0.496649 -0.031018 -0.271642
-0.49669901 0.0033569899 -0.271642
0.037719999 -0.496676 -0.271642
0.072094999 -0.49667799 -0.271642
0.10647 -0.49669099 -0.271642
0.140845 -0.49663699 -0.271642
0.17522 -0.496719 -0.271642
0.20959499 -0.496636 -0.271642
0.24397001 -0.49669099 -0.271642
0.27834499 -0.496681 -0.271642
0.31272 -0.49668401 -0.271642
0.34709501 -0.49670801 -0.271642
0.38146999 -0.49669501 -0.271642
0.41584501 -0.49680799 -0.271642
0.45021999 -0.496701 -0.271642
0.484595 -0.496225 -0.271642
0.50330299 -0.47789299 -0.271642
0.503429 -0.44351801 -0.271642
0.50347799 -0.409143 -0.271642
0.50346398 -0.37476799 -0.271642
0.50335902 -0.34039301 -0.271642
0.503425 -0.30601799 -0.271642
0.50334197 -0.27164301 -0.271642
0.50339502 -0.237268 -0.271642
0.50337899 -0.202893 -0.271642
0.50338101 -0.16851801 -0.271642
0.50339401 -0.13414299 -0.271642
0.50333798 -0.099767998 -0.271642
0.50342101 -0.065393001 -0.271642
0.50334102 -0.031018 -0.271642
0.50339001 0.0033569899 -0.271642
-0.49668801 0.037732001 -0.271642
-0.49668899 0.072107002 -0.271642
-0.49669999 0.106482 -0.271642
-0.49664801 0.140857 -0.271642
-0.49673101 0.17523199 -0.271642
-0.496647 0.20960701 -0.271642
-0.496703 0.243982 -0.271642
-0.496692 0.278357 -0.271642
-0.496694 0.31273201 -0.271642
-0.49671999 0.34710699 -0.271642
-0.49670899 0.38148201 -0.271642
-0.49681899 0.41585699 -0.271642
-0.49671599 0.450232 -0.271642
-0.49624199 0.48460701 -0.271642
-0.47790501 0.50331199 -0.271642
-0.44352999 0.503443 -0.271642
-0.40915501 0.50348699 -0.271642
-0.37478 0.50347501 -0.271642
-0.34040499 0.503371 -0.271642
-0.30603001 0.503438 -0.271642
-0.27165499 0.50335503 -0.271642
-0.23728 0.50340801 -0.271642
-0.202905 0.50339198 -0.271642
-0.16853 0.50339299 -0.271642
-0.13415501 0.50340801 -0.271642
-0.099780001 0.50335002 -0.271642
-0.065404996 0.503434 -0.271642
-0.031029999 0.50335598 -0.271642
0.0033450101 0.50340199 -0.271642
0.50338 0.037732001 -0.271642
0.50338101 0.072107002 -0.271642
0.50339103 0.106482 -0.271642
0.50334102 0.140857 -0.271642
0.50342202 0.17523199 -0.271642
0.50333899 0.20960701 -0.271642
0.50339597 0.243982 -0.271642
0.50338501 0.278357 -0.271642
0.037719999 0.50339198 -0.271642
0.072094999 0.50339401 -0.271642
0.10647 0.50340301 -0.271642
0.140845 0.50335401 -0.271642
0.17522 0.50343603 -0.271642
0.20959499 0.50335097 -0.271642
0.24397001 0.50340801 -0.271642
0.27834499 0.503398 -0.271642
0.50338697 0.31273201 -0.271642
0.50341201 0.34710699 -0.271642
0.50340497 0.38148201 -0.271642
0.50351 0.41585699 -0.271642
0.31272 0.50339699 -0.271642
0.34709501 0.50342399 -0.271642
0.38146999 0.50341803 -0.271642
0.41584501 0.50352103 -0.271642
0.50342798 0.450232 -0.271642
0.50233901 0.48460701 -0.271642
0.45021999 0.50344002 -0.271642
0.484595 0.50234699 -0.271642
-0.47790501 -0.49694401 -0.237267
-0.49695301 -0.47789299 -0.237267
-0.44352999 -0.49680001 -0.237267
-0.40915501 -0.49685201 -0.237267
-0.49681199 -0.44351801 -0.237267
-0.49686 -0.409143 -0.237267
-0.37478 -0.49682999 -0.237267
-0.34040499 -0.49670801 -0.237267
-0.30603001 -0.49679399 -0.237267
-0.27165499 -0.49669501 -0.237267
-0.49683899 -0.37476799 -0.237267
-0.496719 -0.34039301 -0.237267
-0.496802 -0.30601799 -0.237267
-0.496705 -0.27164301 -0.237267
-0.23728 -0.49675301 -0.237267
-0.202905 -0.49674201 -0.237267
-0.16853 -0.49673799 -0.237267
-0.13415501 -0.49675101 -0.237267
-0.099780001 -0.49669501 -0.237267
-0.065404996 -0.49678501 -0.237267
-0.031029999 -0.49669099 -0.237267
0.0033450101 -0.49675599 -0.237267
-0.49676299 -0.237268 -0.237267
-0.49675 -0.202893 -0.237267
-0.496748 -0.16851801 -0.237267
-0.49676099 -0.13414299 -0.237267
-0.49670401 -0.099767998 -0.237267
-0.496795 -0.065393001 -0.237267
-0.496701 -0.031018 -0.237267
-0.49676299 0.0033569899 -0.237267
0.037719999 -0.49673799 -0.237267
0.072094999 -0.496737 -0.237267
0.10647 -0.496755 -0.237267
0.140845 -0.496692 -0.237267
0.17522 -0.49678501 -0.237267
0.20959499 -0.49669701 -0.237267
0.24397001 -0.49675399 -0.237267
0.27834499 -0.49674001 -0.237267
0.31272 -0.49674699 -0.237267
0.34709501 -0.496773 -0.237267
0.38146999 -0.49675599 -0.237267
0.41584501 -0.496894 -0.237267
0.45021999 -0.49677899 -0.237267
0.484595 -0.49626499 -0.237267
0.50334799 -0.47789299 -0.237267
0.50350398 -0.44351801 -0.237267
0.503555 -0.409143 -0.237267
0.50353301 -0.37476799 -0.237267
0.50341201 -0.34039301 -0.237267
0.50349301 -0.30601799 -0.237267
0.50339597 -0.27164301 -0.237267
0.503452 -0.237268 -0.237267
0.50344002 -0.202893 -0.237267
0.50343901 -0.16851801 -0.237267
0.50345099 -0.13414299 -0.237267
0.50339401 -0.099767998 -0.237267
0.50348401 -0.065393001 -0.237267
0.50339103 -0.031018 -0.237267
0.50345302 0.0033569899 -0.237267
-0.496748 0.037732001 -0.237267
-0.49674699 0.072107002 -0.237267
-0.49676299 0.106482 -0.237267
-0.49670199 0.140857 -0.237267
-0.49679399 0.17523199 -0.237267
-0.49670401 0.20960701 -0.237267
-0.496764 0.243982 -0.237267
-0.49675 0.278357 -0.237267
-0.496757 0.31273201 -0.237267
-0.496784 0.34710699 -0.237267
-0.49676701 0.38148201 -0.237267
-0.49690199 0.41585699 -0.237267
-0.49678901 0.450232 -0.237267
-0.49627301 0.48460701 -0.237267
-0.47790501 0.50335902 -0.237267
-0.44352999 0.50351602 -0.237267
-0.40915501 0.50356698 -0.237267
-0.37478 0.50354701 -0.237267
-0.34040499 0.50342399 -0.237267
-0.30603001 0.50350499 -0.237267
-0.27165499 0.50340903 -0.237267
-0.23728 0.50346398 -0.237267
-0.202905 0.503452 -0.237267
-0.16853 0.503452 -0.237267
-0.13415501 0.50346398 -0.237267
-0.099780001 0.50340599 -0.237267
-0.065404996 0.503497 -0.237267
-0.031029999 0.50340402 -0.237267
0.0033450101 0.50346398 -0.237267
0.503438 0.037732001 -0.237267
0.50343698 0.072107002 -0.237267
0.50345302 0.106482 -0.237267
0.50339299 0.140857 -0.237267
0.50348401 0.17523199 -0.237267
0.50339502 0.20960701 -0.237267
0.50345498 0.243982 -0.237267
0.50344098 0.278357 -0.237267
0.037719999 0.50344998 -0.237267
0.072094999 0.50344998 -0.237267
0.10647 0.503465 -0.237267
0.140845 0.50340599 -0.237267
0.17522 0.503497 -0.237267
0.20959499 0.503407 -0.237267
0.24397001 0.50346798 -0.237267
0.27834499 0.50345403 -0.237267
0.50344801 0.31273201 -0.237267
0.50347501 0.34710699 -0.237267
0.50346297 0.38148201 -0.237267
0.50359201 0.41585699 -0.237267
0.31272 0.50345898 -0.237267
0.34709501 0.50348699 -0.237267
0.38146999 0.50347501 -0.237267
0.41584501 0.50360298 -0.237267
0.50349998 0.450232 -0.237267
0.50234598 0.48460701 -0.237267
0.45021999 0.50351202 -0.237267
0.484595 0.50235701 -0.237267
0.50339502 -0.116956 -0.25445399
-0.47790501 -0.49692699 -0.20289201
-0.496934 -0.47789299 -0.20289201
-0.44352999 -0.496782 -0.20289201
-0.40915501 -0.496831 -0.20289201
-0.49679601 -0.44351801 -0.20289201
-0.49684 -0.409143 -0.20289201
-0.37478 -0.496811 -0.20289201
-0.34040499 -0.49669501 -0.20289201
-0.30603001 -0.496775 -0.20289201
-0.27165499 -0.49667999 -0.20289201
-0.49682099 -0.37476799 -0.20289201
-0.49670601 -0.34039301 -0.20289201
-0.496784 -0.30601799 -0.20289201
-0.49669001 -0.27164301 -0.20289201
-0.23728 -0.496737 -0.20289201
-0.202905 -0.49672401 -0.20289201
-0.16853 -0.49672201 -0.20289201
-0.13415501 -0.49673599 -0.20289201
-0.099780001 -0.49667799 -0.20289201
-0.065404996 -0.49676701 -0.20289201
-0.031029999 -0.49667799 -0.20289201
0.0033450101 -0.496737 -0.20289201
-0.496748 -0.237268 -0.20289201
-0.49673301 -0.202893 -0.20289201
-0.49673301 -0.16851801 -0.20289201
-0.49674699 -0.13414299 -0.20289201
-0.49668801 -0.099767998 -0.20289201
-0.49677801 -0.065393001 -0.20289201
-0.49668801 -0.031018 -0.20289201
-0.49674699 0.0033569899 -0.20289201
0.037719999 -0.49672201 -0.20289201
0.072094999 -0.49672201 -0.20289201
0.10647 -0.496737 -0.20289201
0.140845 -0.49667799 -0.20289201
0.17522 -0.49676901 -0.20289201
0.20959499 -0.49667999 -0.20289201
0.24397001 -0.49673799 -0.20289201
0.27834499 -0.49672499 -0.20289201
0.31272 -0.49673 -0.20289201
0.34709501 -0.49675599 -0.20289201
0.38146999 -0.49674201 -0.20289201
0.41584501 -0.49687099 -0.20289201
0.45021999 -0.496759 -0.20289201
0.484595 -0.49625301 -0.20289201
0.50333798 -0.47789299 -0.20289201
0.503488 -0.44351801 -0.20289201
0.50353402 -0.409143 -0.20289201
0.50351501 -0.37476799 -0.20289201
0.50340003 -0.34039301 -0.20289201
0.50347501 -0.30601799 -0.20289201
0.50338203 -0.27164301 -0.20289201
0.50343901 -0.237268 -0.20289201
0.50342399 -0.202893 -0.20289201
0.50342399 -0.16851801 -0.20289201
0.50343698 -0.13414299 -0.20289201
0.50337899 -0.099767998 -0.20289201
0.50346798 -0.065393001 -0.20289201
0.50338 -0.031018 -0.20289201
0.50343603 0.0033569899 -0.20289201
-0.496732 0.037732001 -0.20289201
-0.49673301 0.072107002 -0.20289201
-0.49674699 0.106482 -0.20289201
-0.49668801 0.140857 -0.20289201
-0.49677899 0.17523199 -0.20289201
-0.49668899 0.20960701 -0.20289201
-0.49674901 0.243982 -0.20289201
-0.49673599 0.278357 -0.20289201
-0.49674001 0.31273201 -0.20289201
-0.49676701 0.34710699 -0.20289201
-0.49675301 0.38148201 -0.20289201
-0.49688101 0.41585699 -0.20289201
-0.49677101 0.450232 -0.20289201
-0.49626401 0.48460701 -0.20289201
-0.47790501 0.50335002 -0.20289201
-0.44352999 0.50349998 -0.20289201
-0.40915501 0.50354701 -0.20289201
-0.37478 0.50352901 -0.20289201
-0.34040499 0.503411 -0.20289201
-0.30603001 0.50348699 -0.20289201
-0.27165499 0.50339502 -0.20289201
-0.23728 0.50345099 -0.20289201
-0.202905 0.50343603 -0.20289201
-0.16853 0.50343698 -0.20289201
-0.13415501 0.50344998 -0.20289201
-0.099780001 0.50339001 -0.20289201
-0.065404996 0.50348002 -0.20289201
-0.031029999 0.50339299 -0.20289201
0.0033450101 0.50344801 -0.20289201
0.50342298 0.037732001 -0.20289201
0.50342298 0.072107002 -0.20289201
0.50343698 0.106482 -0.20289201
0.50337899 0.140857 -0.20289201
0.50346899 0.17523199 -0.20289201
0.50338101 0.20960701 -0.20289201
0.50343901 0.243982 -0.20289201
0.50342703 0.278357 -0.20289201
0.037719999 0.50343502 -0.20289201
0.072094999 0.50343603 -0.20289201
0.10647 0.50344801 -0.20289201
0.140845 0.50339198 -0.20289201
0.17522 0.50348198 -0.20289201
0.20959499 0.50339198 -0.20289201
0.24397001 0.50345302 -0.20289201
0.27834499 0.50344002 -0.20289201
0.50343198 0.31273201 -0.20289201
0.50345898 0.34710699 -0.20289201
0.50344902 0.38148201 -0.20289201
0.50357097 0.41585699 -0.20289201
0.31272 0.503443 -0.20289201
0.34709501 0.50347 -0.20289201
0.38146999 0.503461 -0.20289201
0.41584501 0.503582 -0.20289201
0.503483 0.450232 -0.20289201
0.50234699 0.48460701 -0.20289201
0.45021999 0.50349498 -0.20289201
0.484595 0.50235498 -0.20289201
-0.391967 0.50354701 -0.220079
-0.47790501 -0.49692601 -0.16851699
-0.49693301 -0.47789299 -0.16851699
-0.44352999 -0.49678001 -0.16851699
-0.40915501 -0.49682999 -0.16851699
-0.49679399 -0.44351801 -0.16851699
-0.49683899 -0.409143 -0.16851699
-0.37478 -0.49680999 -0.16851699
-0.34040499 -0.496694 -0.16851699
-0.30603001 -0.49677399 -0.16851699
-0.27165499 -0.49667901 -0.16851699
-0.49682 -0.37476799 -0.16851699
-0.496705 -0.34039301 -0.16851699
-0.496784 -0.30601799 -0.16851699
-0.49669001 -0.27164301 -0.16851699
-0.23728 -0.49673599 -0.16851699
-0.202905 -0.496723 -0.16851699
-0.16853 -0.496721 -0.16851699
-0.13415501 -0.49673501 -0.16851699
-0.099780001 -0.49667701 -0.16851699
-0.065404996 -0.496766 -0.16851699
-0.031029999 -0.49667701 -0.16851699
0.0033450101 -0.49673501 -0.16851699
-0.49674699 -0.237268 -0.16851699
-0.49673301 -0.202893 -0.16851699
-0.496732 -0.16851801 -0.16851699
-0.496746 -0.13414299 -0.16851699
-0.49668801 -0.099767998 -0.16851699
-0.496777 -0.065393001 -0.16851699
-0.496687 -0.031018 -0.16851699
-0.496746 0.0033569899 -0.16851699
0.037719999 -0.49671999 -0.16851699
0.072094999 -0.496721 -0.16851699
0.10647 -0.49673599 -0.16851699
0.140845 -0.49667701 -0.16851699
0.17522 -0.49676701 -0.16851699
0.20959499 -0.49667901 -0.16851699
0.24397001 -0.49673599 -0.16851699
0.27834499 -0.49672401 -0.16851699
0.31272 -0.49672899 -0.16851699
0.34709501 -0.496755 -0.16851699
0.38146999 -0.49674001 -0.16851699
0.41584501 -0.49687001 -0.16851699
0.45021999 -0.49675801 -0.16851699
0.484595 -0.496252 -0.16851699
0.50333703 -0.47789299 -0.16851699
0.50348598 -0.44351801 -0.16851699
0.50353402 -0.409143 -0.16851699
0.50351399 -0.37476799 -0.16851699
0.503398 -0.34039301 -0.16851699
0.503474 -0.30601799 -0.16851699
0.50338101 -0.27164301 -0.16851699
0.50343698 -0.237268 -0.16851699
0.50342298 -0.202893 -0.16851699
0.50342202 -0.16851801 -0.16851699
0.50343603 -0.13414299 -0.16851699
0.50337797 -0.099767998 -0.16851699
0.50346601 -0.065393001 -0.16851699
0.50337797 -0.031018 -0.16851699
0.50343502 0.0033569899 -0.16851699
-0.49673101 0.037732001 -0.16851699
-0.496732 0.072107002 -0.16851699
-0.496746 0.106482 -0.16851699
-0.496687 0.140857 -0.16851699
-0.49677801 0.17523199 -0.16851699
-0.49668899 0.20960701 -0.16851699
-0.496748 0.243982 -0.16851699
-0.49673501 0.278357 -0.16851699
-0.49674001 0.31273201 -0.16851699
-0.49676701 0.34710699 -0.16851699
-0.49675199 0.38148201 -0.16851699
-0.49687999 0.41585699 -0.16851699
-0.49676999 0.450232 -0.16851699
-0.496263 0.48460701 -0.16851699
-0.47790501 0.50334799 -0.16851699
-0.44352999 0.50349802 -0.16851699
-0.40915501 0.503546 -0.16851699
-0.37478 0.503528 -0.16851699
-0.34040499 0.50340998 -0.16851699
-0.30603001 0.50348598 -0.16851699
-0.27165499 0.50339401 -0.16851699
-0.23728 0.50344902 -0.16851699
-0.202905 0.50343502 -0.16851699
-0.16853 0.50343502 -0.16851699
-0.13415501 0.50344902 -0.16851699
-0.099780001 0.503389 -0.16851699
-0.065404996 0.503479 -0.16851699
-0.031029999 0.50339103 -0.16851699
0.0033450101 0.50344598 -0.16851699
0.50342101 0.037732001 -0.16851699
0.50342202 0.072107002 -0.16851699
0.50343502 0.106482 -0.16851699
0.50337797 0.140857 -0.16851699
0.50346798 0.17523199 -0.16851699
0.50338 0.20960701 -0.16851699
0.503438 0.243982 -0.16851699
0.50342602 0.278357 -0.16851699
0.037719999 0.503434 -0.16851699
0.072094999 0.503434 -0.16851699
0.10647 0.503447 -0.16851699
0.140845 0.50339103 -0.16851699
0.17522 0.50348002 -0.16851699
0.20959499 0.50339103 -0.16851699
0.24397001 0.50345099 -0.16851699
0.27834499 0.50343901 -0.16851699
0.50343102 0.31273201 -0.16851699
0.50345802 0.34710699 -0.16851699
0.50344801 0.38148201 -0.16851699
0.50357002 0.41585699 -0.16851699
0.31272 0.50344098 -0.16851699
0.34709501 0.50346899 -0.16851699
0.38146999 0.50345999 -0.16851699
0.41584501 0.50358099 -0.16851699
0.50348097 0.450232 -0.16851699
0.50234598 0.48460701 -0.16851699
0.45021999 0.50349301 -0.16851699
0.484595 0.50235403 -0.16851699
-0.47790501 -0.496941 -0.134142
-0.49694899 -0.47789299 -0.134142
-0.44352999 -0.49680001 -0.134142
-0.40915501 -0.496851 -0.134142
-0.49681199 -0.44351801 -0.134142
-0.496858 -0.409143 -0.134142
-0.37478 -0.49682799 -0.134142
-0.34040499 -0.49670699 -0.134142
-0.30603001 -0.49679199 -0.134142
-0.27165499 -0.49669299 -0.134142
-0.49683699 -0.37476799 -0.134142
-0.496719 -0.34039301 -0.134142
-0.49679899 -0.30601799 -0.134142
-0.49670199 -0.27164301 -0.134142
-0.23728 -0.49675101 -0.134142
-0.202905 -0.49674001 -0.134142
-0.16853 -0.49673599 -0.134142
-0.13415501 -0.49675 -0.134142
-0.099780001 -0.496692 -0.134142
-0.065404996 -0.49678299 -0.134142
-0.031029999 -0.49669001 -0.134142
0.0033450101 -0.49675301 -0.134142
-0.49676099 -0.237268 -0.134142
-0.49674699 -0.202893 -0.134142
-0.49674499 -0.16851801 -0.134142
-0.49676001 -0.13414299 -0.134142
-0.49669999 -0.099767998 -0.134142
-0.49679199 -0.065393001 -0.134142
-0.49669901 -0.031018 -0.134142
-0.49676001 0.0033569899 -0.134142
0.037719999 -0.49673599 -0.134142
0.072094999 -0.49673501 -0.134142
0.10647 -0.49675301 -0.134142
0.140845 -0.49669099 -0.134142
0.17522 -0.496784 -0.134142
0.20959499 -0.49669501 -0.134142
0.24397001 -0.49675199 -0.134142
0.27834499 -0.49673799 -0.134142
0.31272 -0.49674499 -0.134142
0.34709501 -0.49677101 -0.134142
0.38146999 -0.496755 -0.134142
0.41584501 -0.49689299 -0.134142
0.45021999 -0.49677801 -0.134142
0.484595 -0.496263 -0.134142
0.50334501 -0.47789299 -0.134142
0.50350302 -0.44351801 -0.134142
0.50355202 -0.409143 -0.134142
0.50353098 -0.37476799 -0.134142
0.503411 -0.34039301 -0.134142
0.50348997 -0.30601799 -0.134142
0.50339299 -0.27164301 -0.134142
0.50345099 -0.237268 -0.134142
0.50343698 -0.202893 -0.134142
0.50343603 -0.16851801 -0.134142
0.50344902 -0.13414299 -0.134142
0.50339103 -0.099767998 -0.134142
0.50348097 -0.065393001 -0.134142
0.50339001 -0.031018 -0.134142
0.50344902 0.0033569899 -0.134142
-0.49674499 0.037732001 -0.134142
-0.49674499 0.072107002 -0.134142
-0.49676001 0.106482 -0.134142
-0.49669999 0.140857 -0.134142
-0.496793 0.17523199 -0.134142
-0.496701 0.20960701 -0.134142
-0.49676201 0.243982 -0.134142
-0.496748 0.278357 -0.134142
-0.49675399 0.31273201 -0.134142
-0.496782 0.34710699 -0.134142
-0.496766 0.38148201 -0.134142
-0.49689901 0.41585699 -0.134142
-0.49678701 0.450232 -0.134142
-0.496272 0.48460701 -0.134142
-0.47790501 0.50335598 -0.134142
-0.44352999 0.50351602 -0.134142
-0.40915501 0.50356603 -0.134142
-0.37478 0.503546 -0.134142
-0.34040499 0.50342202 -0.134142
-0.30603001 0.50350302 -0.134142
-0.27165499 0.503407 -0.134142
-0.23728 0.50346297 -0.134142
-0.202905 0.50344998 -0.134142
-0.16853 0.50344902 -0.134142
-0.13415501 0.50346202 -0.134142
-0.099780001 0.50340301 -0.134142
-0.065404996 0.50349402 -0.134142
-0.031029999 0.50340301 -0.134142
0.0033450101 0.50346202 -0.134142
0.50343502 0.037732001 -0.134142
0.50343502 0.072107002 -0.134142
0.50344902 0.106482 -0.134142
0.50339001 0.140857 -0.134142
0.50348198 0.17523199 -0.134142
0.50339198 0.20960701 -0.134142
0.503452 0.243982 -0.134142
0.50343901 0.278357 -0.134142
0.037719999 0.50344801 -0.134142
0.072094999 0.503447 -0.134142
0.10647 0.50346202 -0.134142
0.140845 0.50340402 -0.134142
0.17522 0.50349498 -0.134142
0.20959499 0.50340497 -0.134142
0.24397001 0.50346601 -0.134142
0.27834499 0.503452 -0.134142
0.50344402 0.31273201 -0.134142
0.50347298 0.34710699 -0.134142
0.50346202 0.38148201 -0.134142
0.50358897 0.41585699 -0.134142
0.31272 0.50345701 -0.134142
0.34709501 0.50348502 -0.134142
0.38146999 0.50347298 -0.134142
0.41584501 0.50360203 -0.134142
0.50349802 0.450232 -0.134142
0.50234503 0.48460701 -0.134142
0.45021999 0.50351101 -0.134142
0.484595 0.50235403 -0.134142
0.50343502 0.020544499 -0.151329
-0.47790501 -0.49688399 -0.099766903
-0.49689201 -0.47789299 -0.099766903
-0.44352999 -0.496719 -0.099766903
-0.40915501 -0.49677101 -0.099766903
-0.49673799 -0.44351801 -0.099766903
-0.496784 -0.409143 -0.099766903
-0.37478 -0.49675599 -0.099766903
-0.34040499 -0.49665099 -0.099766903
-0.30603001 -0.496723 -0.099766903
-0.27165499 -0.49663699 -0.099766903
-0.49676901 -0.37476799 -0.099766903
-0.496663 -0.34039301 -0.099766903
-0.49673501 -0.30601799 -0.099766903
-0.496649 -0.27164301 -0.099766903
-0.23728 -0.49668801 -0.099766903
-0.202905 -0.496676 -0.099766903
-0.16853 -0.49667501 -0.099766903
-0.13415501 -0.49668801 -0.099766903
-0.099780001 -0.49663499 -0.099766903
-0.065404996 -0.49671599 -0.099766903
-0.031029999 -0.49663401 -0.099766903
0.0033450101 -0.496687 -0.099766903
-0.496701 -0.237268 -0.099766903
-0.49668899 -0.202893 -0.099766903
-0.496687 -0.16851801 -0.099766903
-0.49669999 -0.13414299 -0.099766903
-0.496647 -0.099767998 -0.099766903
-0.496728 -0.065393001 -0.099766903
-0.49664599 -0.031018 -0.099766903
-0.49669999 0.0033569899 -0.099766903
0.037719999 -0.49667501 -0.099766903
0.072094999 -0.49667501 -0.099766903
0.10647 -0.49668801 -0.099766903
0.140845 -0.49663499 -0.099766903
0.17522 -0.49671599 -0.099766903
0.20959499 -0.496636 -0.099766903
0.24397001 -0.49668899 -0.099766903
0.27834499 -0.49667799 -0.099766903
0.31272 -0.49668199 -0.099766903
0.34709501 -0.49670601 -0.099766903
0.38146999 -0.49669299 -0.099766903
0.41584501 -0.49680799 -0.099766903
0.45021999 -0.49670199 -0.099766903
0.484595 -0.49623001 -0.099766903
0.50330597 -0.47789299 -0.099766903
0.50342798 -0.44351801 -0.099766903
0.50347799 -0.409143 -0.099766903
0.50346297 -0.37476799 -0.099766903
0.50335598 -0.34039301 -0.099766903
0.503425 -0.30601799 -0.099766903
0.50334102 -0.27164301 -0.099766903
0.50339103 -0.237268 -0.099766903
0.50337899 -0.202893 -0.099766903
0.50337797 -0.16851801 -0.099766903
0.50339001 -0.13414299 -0.099766903
0.50333798 -0.099767998 -0.099766903
0.50341803 -0.065393001 -0.099766903
0.50333798 -0.031018 -0.099766903
0.503389 0.0033569899 -0.099766903
-0.496687 0.037732001 -0.099766903
-0.49668601 0.072107002 -0.099766903
-0.49669999 0.106482 -0.099766903
-0.496647 0.140857 -0.099766903
-0.49672899 0.17523199 -0.099766903
-0.49664801 0.20960701 -0.099766903
-0.49670199 0.243982 -0.099766903
-0.49669001 0.278357 -0.099766903
-0.49669501 0.31273201 -0.099766903
-0.496719 0.34710699 -0.099766903
-0.49670699 0.38148201 -0.099766903
-0.49682099 0.41585699 -0.099766903
-0.49671701 0.450232 -0.099766903
-0.496245 0.48460701 -0.099766903
-0.47790501 0.503317 -0.099766903
-0.44352999 0.50344002 -0.099766903
-0.40915501 0.50348598 -0.099766903
-0.37478 0.50347298 -0.099766903
-0.34040499 0.50336897 -0.099766903
-0.30603001 0.503434 -0.099766903
-0.27165499 0.50335199 -0.099766903
-0.23728 0.50340402 -0.099766903
-0.202905 0.50338799 -0.099766903
-0.16853 0.50339001 -0.099766903
-0.13415501 0.50340402 -0.099766903
-0.099780001 0.50334603 -0.099766903
-0.065404996 0.503429 -0.099766903
-0.031029999 0.50335199 -0.099766903
0.0033450101 0.503398 -0.099766903
