# .PCD v0.7 - Point Cloud Data file format
VERSION 0.7
FIELDS x y z
SIZE 4 4 4
TYPE F F F
COUNT 1 1 1
WIDTH 1471
HEIGHT 1
VIEWPOINT 0 0 0 1 0 0 0
POINTS 1471
DATA ascii
-0.285725 0.265001 0.00077753997
-0.268538 0.26421401 0.00077753997
-0.25134999 0.26302201 0.00077753997
-0.37166199 0.30843201 0.00077753997
-0.35447499 0.30456001 0.00077753997
-0.33728799 0.30423999 0.00077753997
-0.32010001 0.30679899 0.00077753997
-0.30861101 0.319085 0.00077753997
-0.30291301 0.332059 0.00077753997
-0.30052599 0.336272 0.00077753997
-0.285725 0.34641099 0.00077753997
-0.268538 0.34996101 0.00077753997
-0.25134999 0.35292199 0.00077753997
-0.211795 0.14721 0.00077753997
-0.216975 0.140172 0.00077753997
-0.234163 0.177973 0.00077753997
-0.216975 0.176245 0.00077753997
-0.206156 0.164397 0.00077753997
-0.103034 0.095647 0.00077753997
-0.096684404 0.112835 0.00077753997
-0.010725 0.093142197 0.00077753997
-0.0090667 0.095647 0.00077753997
0.00307864 0.112835 0.00077753997
-0.086094901 0.14721 0.00077753997
-0.081240103 0.164397 0.00077753997
-0.079475001 0.168945 0.00077753997
-0.071630202 0.181584 0.00077753997
-0.062287498 0.188915 0.00077753997
-0.0451 0.196403 0.00077753997
-0.039390199 0.198772 0.00077753997
-0.027912499 0.19981401 0.00077753997
-0.019358801 0.215959 0.00077753997
-0.234163 0.23219299 0.00077753997
-0.231096 0.233147 0.00077753997
-0.21935201 0.25033501 0.00077753997
-0.234163 0.26115 0.00077753997
-0.16541301 0.34481001 0.00077753997
-0.18260001 0.34790099 0.00077753997
-0.14822499 0.34312901 0.00077753997
-0.11385 0.32865399 0.00077753997
-0.123868 0.336272 0.00077753997
-0.131038 0.34068701 0.00077753997
-0.027912499 0.222644 0.00077753997
-0.031403299 0.233147 0.00077753997
-0.027912499 0.241438 0.00077753997
-0.016895801 0.25033501 0.00077753997
-0.010725 0.254264 0.00077753997
-0.027912499 0.283878 0.00077753997
-0.029524099 0.28470999 0.00077753997
-0.010725 0.27430701 0.00077753997
-0.0041629099 0.26752201 0.00077753997
-0.096662499 0.323935 0.00077753997
-0.079475001 0.32274601 0.00077753997
-0.062287498 0.322429 0.00077753997
-0.0451 0.321646 0.00077753997
-0.027912499 0.30019799 0.00077753997
-0.024690101 0.30189699 0.00077753997
-0.016325699 0.319085 0.00077753997
-0.027912499 0.32163501 0.00077753997
0.341461 0.095647 0.00077753997
0.33825701 0.112835 0.00077753997
0.33302501 0.130703 0.00077753997
0.324651 0.14721 0.00077753997
0.33330399 0.130022 0.00077753997
0.418962 0.142812 0.00077753997
0.415178 0.14721 0.00077753997
0.43615001 0.13159201 0.00077753997
0.31583801 0.16102999 0.00077753997
0.31347999 0.164397 0.00077753997
0.29865 0.17959601 0.00077753997
0.410144 0.164397 0.00077753997
0.418962 0.180456 0.00077753997
0.42462 0.181584 0.00077753997
0.43615001 0.193919 0.00077753997
0.470525 0.128437 0.00077753997
0.45916599 0.130022 0.00077753997
0.45333701 0.13021199 0.00077753997
0.48771301 0.128058 0.00077753997
0.497987 0.130022 0.00077753997
0.50489998 0.13118701 0.00077753997
0.50813502 0.14721 0.00077753997
0.50489998 0.147833 0.00077753997
0.50002098 0.164397 0.00077753997
0.50489998 0.17271601 0.00077753997
0.43879601 0.198772 0.00077753997
0.470525 0.187806 0.00077753997
0.45497799 0.198772 0.00077753997
0.45333701 0.202889 0.00077753997
0.48771301 0.191558 0.00077753997
0.50489998 0.193316 0.00077753997
0.51064801 0.181584 0.00077753997
-0.33728799 -0.23091599 -0.00158572
-0.35447499 -0.196541 -0.0102773
-0.285725 -0.26528999 -0.0027872301
-0.131038 -0.059040502 -0.0066056298
-0.11385 -0.059040502 -0.0079802303
-0.14822499 -0.0074780001 -0.0081743002
-0.14822499 0.00970951 -0.0034660699
-0.131038 0.026897 -0.0154008
-0.131038 0.044084501 -5.2390002e-05
-0.11385 0.061271999 -0.0146355
-0.096662499 -0.041852999 -0.0142276
-0.079475001 -0.024665499 -0.0084250001
-0.062287498 0.00970951 -0.0130215
-0.0451 0.044084501 -0.0103441
-0.027912499 0.078459501 -0.0134268
0.212712 -0.26528999 -0.0069518699
0.2299 -0.26528999 -0.00920498
0.247087 -0.26528999 -0.0077615399
0.29865 -0.162165 -0.00013458999
0.28146201 -0.093415499 0.00042873999
0.29865 -0.059040502 -0.0031324599
0.29865 -0.076228 -0.00451267
0.31583801 -0.059040502 -0.0075520901
0.31583801 -0.041852999 -0.0065164599
0.33302501 -0.041852999 -0.0092232199
0.31583801 -0.024665499 -0.00057118997
0.33302501 -0.024665499 -0.0079503702
0.33302501 -0.0074780001 -0.0058304099
0.35021299 -0.0074780001 -0.0095366798
0.36739999 -0.0074780001 -0.0109341
0.35021299 0.00970951 -0.0091786999
0.36739999 0.00970951 0.00034201
0.384588 -0.024665499 -0.00173295
0.401775 -0.024665499 -0.0106406
0.418962 -0.041852999 -0.00318593
0.418962 -0.024665499 -0.0123069
0.43615001 -0.024665499 -0.0050944099
0.384588 -0.0074780001 -0.0159928
0.43615001 -0.0074780001 -0.0102467
0.43615001 0.00970951 -0.0132372
0.35021299 0.026897 -0.0084030004
0.36739999 0.026897 -0.0052054501
0.35021299 0.044084501 -0.0076542501
0.36739999 0.044084501 -0.0122397
0.35021299 0.061271999 -0.0081483098
0.35021299 0.078459501 -0.0089258002
0.43615001 0.026897 -0.0136907
0.384588 0.078459501 -0.0050997101
0.401775 0.078459501 0.00049226999
0.418962 0.078459501 -0.0050903601
-0.38885 0.164397 -0.0012238
-0.37166199 0.164397 -0.0097001204
-0.37166199 0.181584 -0.0041870498
-0.35447499 0.181584 -0.0119593
-0.268538 0.215959 -0.0140666
-0.40603799 0.28470999 -0.0150584
-0.42322499 0.30189699 -0.00362349
-0.40603799 0.30189699 -0.0079812398
-0.38885 0.30189699 -0.0120849
-0.37166199 0.25033501 -0.00215113
-0.35447499 0.25033501 -0.0144356
-0.33728799 0.25033501 -0.016089199
-0.37166199 0.30189699 -0.0076113301
-0.35447499 0.30189699 -0.00166261
-0.33728799 0.30189699 -0.00112158
-0.32010001 0.30189699 -0.0027278101
-0.216975 0.14721 -0.0127493
-0.096662499 0.095647 -0.0128677
-0.096662499 0.112835 0.00074326998
-0.010725 0.095647 -0.0016129001
-0.079475001 0.14721 -0.0091488399
-0.079475001 0.164397 -0.00129181
-0.0451 0.198772 -0.0062420401
-0.0451 0.215959 -0.0129989
-0.027912499 0.215959 -0.0137994
-0.234163 0.233147 -0.0154282
-0.18260001 0.35346001 -0.0149432
-0.0451 0.233147 -0.0146306
-0.027912499 0.25033501 -0.0143518
-0.096662499 0.319085 -0.0102207
-0.079475001 0.319085 -0.0043273601
-0.062287498 0.30189699 -0.0158417
-0.0451 0.30189699 -0.0153152
-0.062287498 0.319085 -0.0035294299
-0.0451 0.319085 -0.0069134799
-0.027912499 0.30189699 -0.0118461
-0.027912499 0.319085 -0.011147
0.35021299 0.095647 -0.0107398
0.35021299 0.112835 -0.016294301
0.33302501 0.14721 -0.0082269898
0.384588 0.095647 -0.015918
0.401775 0.095647 -0.00753272
0.401775 0.112835 -0.0102117
0.418962 0.095647 -0.0085175596
0.43615001 0.095647 -0.0105194
0.418962 0.112835 -0.0060889102
0.43615001 0.112835 -0.0061997198
0.401775 0.130022 -0.0096001001
0.401775 0.14721 -0.0106242
0.418962 0.130022 -0.0024566699
0.43615001 0.130022 0.00019354001
0.31583801 0.164397 -0.00167066
0.29865 0.181584 -0.0012121201
0.401775 0.164397 -0.0129498
0.418962 0.181584 0.00028825001
0.45333701 0.095647 -0.0105639
0.470525 0.095647 -0.0112053
0.45333701 0.112835 -0.0071652499
0.470525 0.112835 -0.0052956901
0.48771301 0.112835 -0.00317705
0.45333701 0.130022 0.00069505
0.50489998 0.130022 -0.00087028998
0.50489998 0.14721 -0.015940599
0.48771301 0.181584 -0.0154133
0.50489998 0.181584 -0.0058751702
0.45333701 0.198772 -0.0091003804
0.35964501 -0.0106988 -0.0086225905
0.36158401 -0.00050124998 -0.0075715198
0.372356 0.00056908 -0.0082642399
-0.36310399 0.252509 -0.0079752803
0.50589502 0.138779 -0.00801259
-0.32010001 -0.250166 0.017965
-0.322662 -0.24810299 0.017965
-0.33728799 -0.23380899 0.017965
-0.340184 -0.23091599 0.017965
-0.35447499 -0.209622 0.017965
-0.36162901 -0.196541 0.017965
-0.352193 -0.213728 0.017965
-0.30291301 -0.26032799 0.017965
-0.29142499 -0.26528999 0.017965
-0.367567 -0.179353 0.017965
-0.37166199 -0.164327 0.017965
-0.372091 -0.162165 0.017965
-0.14822499 -0.066570804 0.017965
-0.159215 -0.059040502 0.017965
-0.131038 -0.070467398 0.017965
-0.11385 -0.069403499 0.017965
-0.096662499 -0.060310502 0.017965
-0.094978601 -0.059040502 0.017965
-0.16541301 -0.0508173 0.017965
-0.168957 -0.041852999 0.017965
-0.17028899 -0.024665499 0.017965
-0.167201 -0.0074780001 0.017965
-0.16541301 -0.00199279 0.017965
-0.160667 0.00970951 0.017965
-0.141655 0.044084501 0.017965
-0.14822499 0.032962099 0.017965
-0.131038 0.061014999 0.017965
-0.130886 0.061271999 0.017965
-0.122564 0.078459501 0.017965
-0.079475001 -0.044580799 0.017965
-0.0649314 -0.024665499 0.017965
-0.062287498 -0.0201336 0.017965
-0.054754499 -0.0074780001 0.017965
-0.0451 0.0092062699 0.017965
-0.044866499 0.00970951 0.017965
-0.0360852 0.026897 0.017965
-0.027912499 0.0402769 0.017965
-0.0256301 0.044084501 0.017965
-0.0146899 0.061271999 0.017965
-0.010725 0.067198999 0.017965
-0.0045249499 0.078459501 0.017965
0.17833801 -0.27338299 0.017965
0.16114999 -0.265946 0.017965
0.19552501 -0.26908201 0.017965
0.203306 -0.26528999 0.017965
0.29865 -0.26963001 0.017965
0.28401199 -0.26528999 0.017965
0.212712 -0.26225999 0.017965
0.2299 -0.26029199 0.017965
0.247087 -0.26022601 0.017965
0.26427501 -0.26039299 0.017965
0.247087 -0.24790099 0.017965
0.244256 -0.23091599 0.017965
0.259298 -0.23091599 0.017965
0.28146201 -0.26427299 0.017965
0.247087 -0.228699 0.017965
0.26427501 -0.135912 0.017965
0.25410399 -0.127791 0.017965
0.29865 -0.154918 0.017965
0.28861001 -0.144978 0.017965
0.28146201 -0.140983 0.017965
0.24985699 -0.110603 0.017965
0.25212499 -0.093415499 0.017965
0.26668099 -0.059040502 0.017965
0.27853799 -0.041852999 0.017965
0.28146201 -0.036821101 0.017965
0.29012901 -0.024665499 0.017965
0.29865 -0.0127984 0.017965
0.33302501 -0.180316 0.017965
0.33161601 -0.179353 0.017965
0.31583801 -0.168494 0.017965
0.307457 -0.162165 0.017965
0.30269 -0.0074780001 0.017965
0.313611 0.00970951 0.017965
0.384588 -0.053553902 0.017965
0.373135 -0.041852999 0.017965
0.39162099 -0.059040502 0.017965
0.37197301 -0.024665499 0.017965
0.374111 -0.0074780001 0.017965
0.37546799 0.00970951 0.017965
0.31583801 0.0139448 0.017965
0.32226199 0.026897 0.017965
0.32598799 0.044084501 0.017965
0.327169 0.061271999 0.017965
0.32679 0.078459501 0.017965
0.37841699 0.026897 0.017965
0.384588 0.042645399 0.017965
0.38534701 0.044084501 0.017965
0.43615001 0.033447899 0.017965
0.42680001 0.044084501 0.017965
0.401775 0.0557217 0.017965
0.418962 0.050448399 0.017965
-0.440413 0.159365 0.017965
-0.440918 0.164397 0.017965
-0.42322499 0.151345 0.017965
-0.440413 0.165585 0.017965
-0.42481199 0.181584 0.017965
-0.40603799 0.15673099 0.017965
-0.38885 0.155375 0.017965
-0.42322499 0.18324301 0.017965
-0.408232 0.198772 0.017965
-0.40603799 0.200206 0.017965
-0.38885 0.20366099 0.017965
-0.37166199 0.153475 0.017965
-0.35447499 0.153166 0.017965
-0.33728799 0.15469401 0.017965
-0.32010001 0.15806299 0.017965
-0.37166199 0.20427699 0.017965
-0.35447499 0.19892199 0.017965
-0.33728799 0.20053899 0.017965
-0.32010001 0.20795199 0.017965
-0.30291301 0.16084 0.017965
-0.29018399 0.164397 0.017965
-0.285725 0.165875 0.017965
-0.268538 0.170949 0.017965
-0.25134999 0.176861 0.017965
-0.30291301 0.212933 0.017965
-0.29276901 0.215959 0.017965
-0.40603799 0.27818301 0.017965
-0.41177699 0.28470999 0.017965
-0.38885 0.27199501 0.017965
-0.42322499 0.29704601 0.017965
-0.430172 0.30189699 0.017965
-0.43663499 0.319085 0.017965
-0.42322499 0.333518 0.017965
-0.40603799 0.328134 0.017965
-0.38885 0.33009601 0.017965
-0.37166199 0.27650201 0.017965
-0.35447499 0.27809301 0.017965
-0.33728799 0.27660599 0.017965
-0.32010001 0.273893 0.017965
-0.285725 0.217406 0.017965
-0.268538 0.221968 0.017965
-0.25134999 0.227299 0.017965
-0.30291301 0.27113101 0.017965
-0.285725 0.26795799 0.017965
-0.268538 0.26513499 0.017965
-0.283553 0.26752201 0.017965
-0.25134999 0.262651 0.017965
-0.38210601 0.336272 0.017965
-0.37166199 0.34167299 0.017965
-0.35447499 0.33750701 0.017965
-0.33728799 0.325611 0.017965
-0.352532 0.336272 0.017965
-0.32010001 0.320039 0.017965
-0.30291301 0.32942599 0.017965
-0.29947099 0.336272 0.017965
-0.285725 0.34557 0.017965
-0.268538 0.34685799 0.017965
-0.25134999 0.348093 0.017965
-0.216162 0.130022 0.017965
-0.216975 0.12915801 0.017965
-0.20124499 0.14721 0.017965
-0.116043 0.095647 0.017965
-0.11385 0.102366 0.017965
-0.234163 0.17945901 0.017965
-0.216975 0.17904 0.017965
-0.199788 0.14921001 0.017965
-0.19214199 0.164397 0.017965
-0.199788 0.175484 0.017965
-0.109973 0.112835 0.017965
0.0053397999 0.095647 0.017965
0.0064625102 0.097248003 0.017965
0.0196974 0.112835 0.017965
-0.105708 0.14721 0.017965
-0.103183 0.164397 0.017965
-0.096662499 0.170661 0.017965
-0.079856902 0.181584 0.017965
-0.079475001 0.181972 0.017965
-0.062287498 0.19723199 0.017965
-0.060936 0.198772 0.017965
-0.057284001 0.215959 0.017965
-0.234163 0.23083299 0.017965
-0.224887 0.233147 0.017965
-0.216975 0.236332 0.017965
-0.208801 0.25033501 0.017965
-0.234163 0.25964999 0.017965
-0.216975 0.256863 0.017965
-0.16541301 0.34184599 0.017965
-0.18260001 0.342356 0.017965
-0.14822499 0.34853899 0.017965
-0.141252 0.35346001 0.017965
-0.051614501 0.233147 0.017965
-0.050738599 0.25033501 0.017965
-0.057527199 0.26752201 0.017965
-0.062287498 0.28235599 0.017965
-0.065047003 0.28470999 0.017965
-0.067785397 0.30189699 0.017965
-0.066235803 0.319085 0.017965
-0.096662499 0.330603 0.017965
-0.101301 0.336272 0.017965
-0.079475001 0.328051 0.017965
-0.098384596 0.35346001 0.017965
-0.131038 0.36031401 0.017965
-0.11385 0.36808199 0.017965
-0.096662499 0.358069 0.017965
-0.110128 0.37064701 0.017965
-0.092802398 0.37064701 0.017965
-0.096662499 0.376387 0.017965
0.31583801 0.121525 0.017965
0.311638 0.130022 0.017965
0.31916299 0.112835 0.017965
0.299786 0.14721 0.017965
0.29865 0.14858501 0.017965
0.160604 -0.26528999 0.017965
0.149266 -0.24810299 0.017965
0.14396299 -0.236735 0.017965
0.141389 -0.23091599 0.017965
0.135893 -0.213728 0.017965
0.13052601 -0.196541 0.017965
0.126775 -0.18125901 0.017965
0.126546 -0.179353 0.017965
0.126775 -0.16519199 0.017965
0.12728401 -0.162165 0.017965
0.173428 -0.093415499 0.017965
0.16114999 -0.108891 0.017965
0.35021299 -0.18671501 0.017965
0.36739999 -0.183924 0.017965
-0.106062 0.130022 0.017965
-0.234163 0.34843299 0.017965
-0.216975 0.34800899 0.017965
-0.32010001 -0.24810299 0.00110888
-0.37166199 -0.162165 0.012122
-0.14822499 -0.059040502 0.00139153
-0.096662499 -0.059040502 0.0133681
-0.16541301 -0.041852999 0.0096665602
-0.16541301 -0.024665499 0.0071118502
-0.16541301 -0.0074780001 0.0127066
-0.14822499 0.026897 0.0123357
-0.11385 0.078459501 0.0054865498
-0.079475001 -0.041852999 0.0134987
-0.062287498 -0.0074780001 0.0031980299
-0.0451 0.00970951 0.017645501
-0.0451 0.026897 0.0054320698
-0.027912499 0.044084501 0.0154288
-0.027912499 0.061271999 0.0023469899
-0.010725 0.078459501 0.0110563
0.26427501 -0.26528999 0.00127751
0.28146201 -0.26528999 0.0150226
0.247087 -0.23091599 0.0155159
0.26427501 -0.127791 0.0114343
0.28146201 -0.127791 0.0083051901
0.26427501 -0.110603 0.00753653
0.26427501 -0.093415499 0.0096239401
0.28146201 -0.110603 0.0023689901
0.28146201 -0.059040502 0.0097784996
0.28146201 -0.041852999 0.0162938
0.29865 -0.041852999 0.0040864898
0.29865 -0.024665499 0.0128426
0.31583801 -0.179353 0.00107145
0.31583801 -0.0074780001 0.0087831002
0.31583801 0.00970951 0.016384499
0.33302501 0.00970951 0.0017769299
0.36739999 -0.0074780001 0.0062698699
0.384588 -0.041852999 0.0106997
0.401775 -0.059040502 0.0125804
0.401775 -0.041852999 0.00143236
0.418962 -0.059040502 0.0071542901
0.43615001 -0.059040502 0.00996482
0.43615001 -0.041852999 0.00096917001
0.33302501 0.026897 0.0088110603
0.33302501 0.044084501 0.012132
0.33302501 0.061271999 0.0134878
0.33302501 0.078459501 0.0131816
0.384588 0.044084501 0.0171551
0.384588 0.061271999 0.0060840198
0.401775 0.061271999 0.013181
0.418962 0.061271999 0.0070938501
-0.440413 0.164397 0.017677899
-0.42322499 0.164397 0.0095305396
-0.42322499 0.181584 0.0172408
-0.40603799 0.164397 0.0064856401
-0.40603799 0.181584 0.0103337
-0.38885 0.181584 0.00304252
-0.40603799 0.198772 0.0169884
-0.38885 0.198772 0.0083959699
-0.37166199 0.198772 0.0043530501
-0.35447499 0.198772 0.017655799
-0.33728799 0.198772 0.016391801
-0.32010001 0.198772 0.0054008402
-0.285725 0.215959 0.0067235199
-0.38885 0.26752201 0.014189
-0.42322499 0.319085 0.0047740298
-0.40603799 0.319085 0.0098283896
-0.38885 0.319085 0.0094376802
-0.37166199 0.25033501 0.0086255101
-0.37166199 0.26752201 0.014349
-0.35447499 0.26752201 0.0097792102
-0.33728799 0.26752201 0.0054260502
-0.32010001 0.26752201 0.0054028602
-0.30291301 0.26752201 0.0055545
-0.285725 0.26752201 0.0136877
-0.37166199 0.319085 0.0069348202
-0.35447499 0.319085 0.0082985796
-0.33728799 0.319085 0.0122175
-0.32010001 0.319085 0.0153493
-0.37166199 0.336272 0.0144604
-0.35447499 0.336272 0.0171418
-0.216975 0.130022 0.016883301
-0.11385 0.095647 0.015766401
-0.199788 0.164397 0.0099748997
0.0064625102 0.112835 0.0057203802
-0.096662499 0.14721 0.0113419
-0.096662499 0.164397 0.0135651
-0.079475001 0.181584 0.0173715
-0.0451 0.198772 0.0069404198
-0.0451 0.215959 0.0130709
-0.027912499 0.215959 0.0062769102
-0.216975 0.25033501 0.0052326899
-0.11385 0.336272 0.0089151897
-0.131038 0.35346001 0.0098909102
-0.11385 0.35346001 0.0060874801
-0.0451 0.233147 0.0145202
-0.0451 0.25033501 0.0151024
-0.0451 0.26752201 0.0139381
-0.062287498 0.28470999 0.0175186
-0.0451 0.28470999 0.0118275
-0.027912499 0.25033501 0.0075810002
-0.027912499 0.26752201 0.0104836
-0.010725 0.26752201 0.00453651
-0.062287498 0.30189699 0.0159718
-0.0451 0.30189699 0.0103959
-0.062287498 0.319085 0.0154206
-0.0451 0.319085 0.0080406703
-0.027912499 0.30189699 0.00329328
-0.027912499 0.319085 0.00407696
-0.096662499 0.37064701 0.0088241696
0.33302501 0.095647 0.0106595
0.33302501 0.112835 0.0071448102
0.31583801 0.130022 0.0154968
0.33302501 0.130022 0.00110352
0.31583801 0.14721 0.0085651902
0.418962 0.14721 0.0021375399
0.43615001 0.14721 0.0053322301
0.29865 0.164397 0.0113786
0.418962 0.164397 0.00493753
0.43615001 0.164397 0.0075254999
0.43615001 0.181584 0.0069338102
0.470525 0.130022 0.001306
0.45333701 0.14721 0.00637251
0.470525 0.14721 0.00676572
0.48771301 0.130022 0.0016325701
0.48771301 0.14721 0.0067562498
0.50489998 0.14721 0.00239974
0.45333701 0.164397 0.0100322
0.470525 0.164397 0.0117969
0.45333701 0.181584 0.0096394401
0.470525 0.181584 0.010581
0.48771301 0.164397 0.0124805
0.48771301 0.181584 0.0152407
0.50489998 0.181584 0.0137437
0.45333701 0.198772 0.00491184
-0.104923 0.36239401 0.014462
-0.285725 -0.267077 0.017965
-0.25134999 -0.27151799 0.017965
-0.216975 -0.265827 0.017965
-0.21533699 -0.26528999 0.017965
-0.18260001 -0.25790799 0.017965
-0.14822499 -0.255097 0.017965
-0.11385 -0.26143399 0.017965
-0.079475001 -0.271065 0.017965
-0.103268 -0.26528999 0.017965
-0.0451 -0.26576599 0.017965
-0.044233199 -0.26528999 0.017965
-0.010725 -0.236176 0.017965
-0.0062915701 -0.23091599 0.017965
0.0183086 -0.196541 0.017965
-0.37678999 -0.127791 0.017965
-0.375947 -0.093415499 0.017965
-0.369082 -0.059040502 0.017965
-0.357723 -0.024665499 0.017965
-0.35447499 -0.016811401 0.017965
-0.34032801 0.00970951 0.017965
-0.32010001 0.039926201 0.017965
-0.31666899 0.044084501 0.017965
-0.285725 0.075578101 0.017965
-0.28254801 0.078459501 0.017965
0.02365 -0.188079 0.017965
0.33302501 -0.27139401 0.017965
0.36739999 -0.26977599 0.017965
0.39257401 -0.26528999 0.017965
0.401775 -0.26057199 0.017965
0.41363099 -0.23091599 0.017965
0.40493101 -0.196541 0.017965
0.035967398 -0.162165 0.017965
0.048262 -0.127791 0.017965
0.144152 -0.127791 0.017965
0.058024999 -0.098827302 0.017965
0.059723798 -0.093415499 0.017965
0.069269501 -0.059040502 0.017965
0.19552501 -0.063214898 0.017965
0.19718599 -0.059040502 0.017965
0.26427501 -0.062557198 0.017965
0.077378698 -0.024665499 0.017965
0.086213097 0.00970951 0.017965
0.092399999 0.031166701 0.017965
0.0968858 0.044084501 0.017965
0.114677 0.078459501 0.017965
0.207865 -0.024665499 0.017965
0.218169 0.00970951 0.017965
0.22826201 0.044084501 0.017965
0.2299 0.050999999 0.017965
0.230976 0.078459501 0.017965
0.401775 -0.19100399 0.017965
0.401775 -0.070602402 0.017965
0.43615001 -0.072493799 0.017965
0.44782299 -0.059040502 0.017965
0.45401001 -0.024665499 0.017965
0.447781 0.00970951 0.017965
-0.25134999 0.101779 0.017965
-0.235504 0.112835 0.017965
0.02365 0.117181 0.017965
0.053850699 0.14721 0.017965
0.126775 0.095756799 0.017965
0.146348 0.112835 0.017965
0.16114999 0.118793 0.017965
0.058024999 0.15061601 0.017965
0.092399999 0.17206199 0.017965
0.120867 0.181584 0.017965
0.126775 0.18363801 0.017965
0.16114999 0.194988 0.017965
0.2299 0.086318098 0.017965
0.21462899 0.112835 0.017965
0.19552501 0.120457 0.017965
0.19552501 0.19985899 0.017965
0.2299 0.19337399 0.017965
0.26427501 0.17842001 0.017965
0.25819701 0.181584 0.017965
-0.18260001 -0.26528999 -0.0160507
-0.35447499 -0.024665499 -0.0105112
0.126775 -0.196541 0.0074439598
0.36739999 -0.196541 -0.0024387799
0.401775 -0.23091599 -0.0095524201
0.401775 -0.196541 0.0130694
0.058024999 -0.127791 -0.0150171
0.126775 -0.162165 0.0111557
0.126775 -0.127791 -0.0101296
0.16114999 -0.093415499 0.0110861
0.16114999 -0.059040502 -0.0075961901
0.19552501 -0.059040502 0.0171698
0.092399999 -0.024665499 -0.0097653298
0.092399999 0.00970951 0.0095111104
0.126775 0.078459501 0.0072983499
0.19552501 -0.024665499 0.0091465702
0.19552501 0.00970951 -0.0107606
0.2299 0.078459501 0.0170282
0.02365 0.14721 -0.0078210197
-0.216975 0.35346001 -0.0024816999
0.16114999 0.112835 0.0141546
0.058024999 0.181584 -0.00987041
0.092399999 0.181584 0.0119981
0.126775 0.215959 -0.0053355098
0.16114999 0.215959 0.0039952402
0.19552501 0.112835 0.0129358
0.19552501 0.215959 0.0055285101
0.2299 0.215959 -0.0021790301
0.26427501 0.181584 0.016310699
-0.287687 -0.265737 0.0084800702
-0.37042999 -0.15070701 0.0026682599
-0.150878 0.0174939 0.0077257799
-0.075981103 -0.032188501 0.0070931301
0.159853 -0.26712 0.00077753997
0.146806 -0.246208 0.00650668
0.13196 -0.215324 0.0047531701
0.31240001 -0.27033299 0.00077753997
0.12748501 -0.177311 0.0150766
0.284067 -0.076478101 0.00153196
0.34645799 -0.189593 0.0027733999
0.418962 -0.064043596 0.0131259
0.44107199 -0.041767001 0.0070911599
0.44204801 -0.0074780001 0.00147039
0.438476 0.0241039 0.0019559299
-0.225861 0.130565 -0.0027554
-0.093252897 0.130466 0.00083243998
0.0109981 0.125002 -0.0034481301
-0.23772299 0.35090101 0.00276726
-0.19634999 0.34903699 0.00385654
0.0431576 0.162093 -0.0059251199
0.075332902 0.192541 -0.0105854
0.28719199 0.172361 0.0105308
0.117297 0.21817701 -0.0136414
0.32900599 0.095647 0.0133832
0.16114999 -0.25546899 0.035152499
0.157296 -0.24810299 0.035152499
0.149417 -0.23091599 0.035152499
0.14396299 -0.221668 0.035152499
0.13941801 -0.213728 0.035152499
0.131557 -0.196541 0.035152499
0.17833801 -0.27244201 0.035152499
0.167843 -0.26528999 0.035152499
0.19552501 -0.27162501 0.035152499
0.206545 -0.26528999 0.035152499
0.29865 -0.266146 0.035152499
0.29612499 -0.26528999 0.035152499
0.212712 -0.262043 0.035152499
0.2299 -0.26161599 0.035152499
0.2299 -0.242019 0.035152499
0.22561 -0.23091599 0.035152499
0.2299 -0.226206 0.035152499
0.247087 -0.260692 0.035152499
0.26427501 -0.25675401 0.035152499
0.24132399 -0.23091599 0.035152499
0.28146201 -0.25963899 0.035152499
0.126775 -0.18512 0.035152499
0.12529799 -0.179353 0.035152499
0.126775 -0.162165 0.035152499
0.247087 -0.135885 0.035152499
0.23525301 -0.127791 0.035152499
0.26427501 -0.144936 0.035152499
0.28146201 -0.14914501 0.035152499
0.26437601 -0.144978 0.035152499
0.29865 -0.14794201 0.035152499
0.17833801 -0.117078 0.035152499
0.16114999 -0.122762 0.035152499
0.19552501 -0.113691 0.035152499
0.212712 -0.114763 0.035152499
0.2299 -0.124098 0.035152499
0.33302501 -0.167308 0.035152499
0.32383099 -0.162165 0.035152499
0.35021299 -0.17408299 0.035152499
0.36739999 -0.174559 0.035152499
0.31583801 -0.15425099 0.035152499
0.372592 -0.059040502 0.035152499
0.371775 -0.041852999 0.035152499
0.37627199 -0.024665499 0.035152499
0.378732 -0.0074780001 0.035152499
0.38175201 0.00970951 0.035152499
0.384588 0.0182389 0.035152499
0.38963699 0.026897 0.035152499
0.401775 0.034064699 0.035152499
-0.440413 0.160252 0.035152499
-0.453704 0.164397 0.035152499
-0.4316 0.164397 0.035152499
-0.453412 0.181584 0.035152499
-0.42322499 0.165251 0.035152499
-0.40603799 0.16219801 0.035152499
-0.415333 0.164397 0.035152499
-0.38885 0.158338 0.035152499
-0.440413 0.195365 0.035152499
-0.43718699 0.198772 0.035152499
-0.42322499 0.20861 0.035152499
-0.40603799 0.205929 0.035152499
-0.38885 0.202833 0.035152499
-0.37166199 0.15561 0.035152499
-0.35447499 0.153975 0.035152499
-0.33728799 0.154798 0.035152499
-0.32010001 0.157708 0.035152499
-0.37166199 0.204329 0.035152499
-0.35447499 0.20755599 0.035152499
-0.33728799 0.210042 0.035152499
-0.32010001 0.212083 0.035152499
-0.30291301 0.160752 0.035152499
-0.290012 0.164397 0.035152499
-0.285725 0.16613799 0.035152499
-0.268538 0.172563 0.035152499
-0.25134999 0.17741001 0.035152499
-0.30291301 0.214959 0.035152499
-0.29790199 0.215959 0.035152499
-0.42322499 0.31513599 0.035152499
-0.42913201 0.319085 0.035152499
-0.40603799 0.29277 0.035152499
-0.41425499 0.30189699 0.035152499
-0.38885 0.29580399 0.035152499
-0.43012601 0.336272 0.035152499
-0.42322499 0.34202999 0.035152499
-0.40603799 0.339973 0.035152499
-0.38885 0.34632 0.035152499
-0.33728799 0.28285399 0.035152499
-0.34179699 0.28470999 0.035152499
-0.32010001 0.27791101 0.035152499
-0.285725 0.21788301 0.035152499
-0.268538 0.220608 0.035152499
-0.25134999 0.22314399 0.035152499
-0.30291301 0.27327701 0.035152499
-0.285725 0.26791 0.035152499
-0.268538 0.26408499 0.035152499
-0.28423399 0.26752201 0.035152499
-0.25134999 0.26091501 0.035152499
-0.37166199 0.29730099 0.035152499
-0.35447499 0.29032201 0.035152499
-0.38200101 0.35346001 0.035152499
-0.35447499 0.35118899 0.035152499
-0.35898799 0.35346001 0.035152499
-0.32010001 0.32262099 0.035152499
-0.337248 0.336272 0.035152499
-0.33728799 0.33632401 0.035152499
-0.30291301 0.3197 0.035152499
-0.285725 0.33302501 0.035152499
-0.28230801 0.336272 0.035152499
-0.268538 0.341667 0.035152499
-0.25134999 0.342574 0.035152499
-0.215473 0.112835 0.035152499
-0.199788 0.12359 0.035152499
-0.190074 0.130022 0.035152499
-0.18260001 0.135499 0.035152499
-0.166017 0.14721 0.035152499
-0.136631 0.112835 0.035152499
-0.139598 0.130022 0.035152499
-0.145147 0.14721 0.035152499
-0.234163 0.181327 0.035152499
-0.232908 0.181584 0.035152499
-0.18260001 0.17846701 0.035152499
-0.19401699 0.181584 0.035152499
-0.216975 0.18293101 0.035152499
-0.199788 0.182276 0.035152499
-0.16541301 0.147561 0.035152499
-0.159435 0.164397 0.035152499
-0.16541301 0.171011 0.035152499
-0.131038 0.156654 0.035152499
-0.123377 0.164397 0.035152499
-0.11385 0.181392 0.035152499
-0.113715 0.181584 0.035152499
-0.234163 0.225272 0.035152499
-0.216975 0.23114599 0.035152499
-0.213227 0.233147 0.035152499
-0.199788 0.24099199 0.035152499
-0.196657 0.25033501 0.035152499
-0.234163 0.25772801 0.035152499
-0.216975 0.255364 0.035152499
-0.199788 0.25225499 0.035152499
-0.234163 0.34205499 0.035152499
-0.216975 0.34118199 0.035152499
-0.11385 0.30362201 0.035152499
-0.12552799 0.319085 0.035152499
-0.168029 0.336272 0.035152499
-0.18260001 0.335996 0.035152499
-0.16541301 0.33753699 0.035152499
-0.14822499 0.34778199 0.035152499
-0.12763099 0.336272 0.035152499
-0.138895 0.35346001 0.035152499
-0.116256 0.35346001 0.035152499
-0.098707303 0.25033501 0.035152499
-0.107035 0.26752201 0.035152499
-0.10903 0.28470999 0.035152499
-0.11065 0.30189699 0.035152499
-0.37166199 0.35623899 0.035152499
-0.131038 0.35932001 0.035152499
0.16114999 -0.26528999 0.020145601
0.14396299 -0.23091599 0.023912599
0.2299 -0.23091599 0.033534698
0.247087 -0.23091599 0.033679899
0.126775 -0.162165 0.035150401
0.247087 -0.127791 0.02538
0.28146201 -0.144978 0.0228552
0.16114999 -0.110603 0.0187943
0.17833801 -0.110603 0.0286188
0.19552501 -0.110603 0.0334129
0.17833801 -0.093415499 0.020137001
0.19552501 -0.093415499 0.025281999
0.212712 -0.110603 0.033036798
0.2299 -0.110603 0.0283255
0.212712 -0.093415499 0.027148999
0.2299 -0.093415499 0.0258037
0.247087 -0.110603 0.020006301
0.247087 -0.093415499 0.020486301
0.33302501 -0.179353 0.019525301
0.31583801 -0.162165 0.028145101
0.35021299 -0.179353 0.0290874
0.36739999 -0.179353 0.0281472
0.29865 -0.0074780001 0.0200816
0.29865 0.00970951 0.025194701
0.384588 -0.059040502 0.020680601
0.29865 0.026897 0.028384799
0.31583801 0.026897 0.021840001
0.29865 0.044084501 0.029805301
0.31583801 0.044084501 0.023995301
0.384588 0.026897 0.029556399
0.401775 0.044084501 0.0274981
0.418962 0.044084501 0.023994099
-0.42322499 0.164397 0.033721998
-0.440413 0.181584 0.0255764
-0.42322499 0.198772 0.0251539
-0.40603799 0.28470999 0.0286736
-0.38885 0.28470999 0.0270682
-0.42322499 0.30189699 0.023263
-0.42322499 0.336272 0.021713501
-0.40603799 0.336272 0.0304949
-0.38885 0.336272 0.0259101
-0.37166199 0.28470999 0.022994701
-0.35447499 0.28470999 0.025950501
-0.37166199 0.35346001 0.030434299
-0.33728799 0.336272 0.035016298
-0.285725 0.336272 0.032301001
-0.216975 0.112835 0.034200501
-0.199788 0.130022 0.0310966
-0.199788 0.14721 0.019572699
-0.18260001 0.14721 0.030591501
-0.131038 0.112835 0.032403301
-0.131038 0.130022 0.032034598
-0.11385 0.112835 0.021336701
-0.11385 0.130022 0.023773201
-0.131038 0.14721 0.030272501
-0.11385 0.14721 0.022339899
-0.216975 0.181584 0.0300905
-0.18260001 0.164397 0.024526
-0.199788 0.181584 0.033356801
-0.16541301 0.164397 0.031786598
-0.11385 0.164397 0.0237194
-0.096662499 0.181584 0.027515201
-0.079475001 0.198772 0.027042801
-0.062287498 0.198772 0.018612601
-0.079475001 0.215959 0.029634999
-0.062287498 0.215959 0.021037901
-0.216975 0.233147 0.026461201
-0.199788 0.25033501 0.031527001
-0.11385 0.319085 0.031419199
-0.18260001 0.336272 0.0346177
-0.11385 0.336272 0.026575301
-0.11385 0.35346001 0.032320499
-0.079475001 0.233147 0.029944399
-0.062287498 0.233147 0.023371
-0.079475001 0.25033501 0.0290724
-0.062287498 0.25033501 0.0231614
-0.096662499 0.25033501 0.034457199
-0.096662499 0.26752201 0.031753998
-0.079475001 0.26752201 0.0259648
-0.096662499 0.28470999 0.029844301
-0.079475001 0.28470999 0.022124199
-0.062287498 0.26752201 0.019487301
-0.096662499 0.30189699 0.030144099
-0.079475001 0.30189699 0.022298999
-0.096662499 0.319085 0.0286527
-0.079475001 0.319085 0.0248079
-0.096662499 0.37064701 0.0204848
-0.104923 0.36239401 0.0207776
0.16114999 -0.237048 0.052340001
0.15770499 -0.23091599 0.052340001
0.14396299 -0.220498 0.052340001
0.13423 -0.213728 0.052340001
0.128776 -0.196541 0.052340001
0.19552501 -0.27291399 0.052340001
0.180554 -0.26528999 0.052340001
0.212712 -0.267629 0.052340001
0.214736 -0.26528999 0.052340001
0.17833801 -0.26265499 0.052340001
0.16779999 -0.24810299 0.052340001
0.2299 -0.25859499 0.052340001
0.247087 -0.25641799 0.052340001
0.26427501 -0.251986 0.052340001
0.28146201 -0.258212 0.052340001
0.29865 -0.26304999 0.052340001
0.126775 -0.184678 0.052340001
0.126298 -0.179353 0.052340001
0.126775 -0.17038199 0.052340001
0.129218 -0.162165 0.052340001
0.212712 -0.132847 0.052340001
0.205642 -0.127791 0.052340001
0.2299 -0.14015099 0.052340001
0.26427501 -0.149891 0.052340001
0.247467 -0.144978 0.052340001
0.247087 -0.14486501 0.052340001
0.28146201 -0.150986 0.052340001
0.29865 -0.147043 0.052340001
0.17833801 -0.117635 0.052340001
0.16114999 -0.122289 0.052340001
0.19552501 -0.1211 0.052340001
0.307145 -0.144978 0.052340001
0.31583801 -0.142617 0.052340001
0.33302501 -0.13770901 0.052340001
0.35021299 -0.149212 0.052340001
0.34910601 -0.144978 0.052340001
0.36739999 -0.14726 0.052340001
0.37262601 -0.059040502 0.052340001
0.376353 -0.041852999 0.052340001
0.38058099 -0.024665499 0.052340001
0.384233 -0.0074780001 0.052340001
0.384588 -0.0064169201 0.052340001
0.396543 0.00970951 0.052340001
0.43615001 0.0083125802 0.052340001
0.43431801 0.00970951 0.052340001
0.401775 0.0126602 0.052340001
-0.4576 0.172291 0.052340001
-0.46313199 0.181584 0.052340001
-0.4576 0.18916599 0.052340001
-0.440413 0.171799 0.052340001
-0.42322499 0.17055599 0.052340001
-0.38885 0.160666 0.052340001
-0.40215901 0.164397 0.052340001
-0.40603799 0.16552299 0.052340001
-0.44779101 0.198772 0.052340001
-0.440413 0.20589399 0.052340001
-0.43277901 0.215959 0.052340001
-0.38885 0.212698 0.052340001
-0.40106401 0.215959 0.052340001
-0.37166199 0.15697201 0.052340001
-0.35447499 0.155255 0.052340001
-0.33728799 0.156038 0.052340001
-0.32010001 0.158309 0.052340001
-0.37166199 0.212098 0.052340001
-0.35447499 0.211852 0.052340001
-0.33728799 0.212207 0.052340001
-0.32010001 0.212256 0.052340001
-0.30291301 0.16221499 0.052340001
-0.296776 0.164397 0.052340001
-0.285725 0.168713 0.052340001
-0.268538 0.174963 0.052340001
-0.25134999 0.179508 0.052340001
-0.30291301 0.21237899 0.052340001
-0.285725 0.213181 0.052340001
-0.268538 0.215344 0.052340001
-0.26368201 0.215959 0.052340001
-0.42322499 0.223169 0.052340001
-0.40603799 0.21968199 0.052340001
-0.40603799 0.311147 0.052340001
-0.41084301 0.319085 0.052340001
-0.38885 0.30642301 0.052340001
-0.41768399 0.336272 0.052340001
-0.40603799 0.34797001 0.052340001
-0.38885 0.35206401 0.052340001
-0.32010001 0.27797201 0.052340001
-0.33591801 0.28470999 0.052340001
-0.25134999 0.21893001 0.052340001
-0.285725 0.26558101 0.052340001
-0.29159501 0.26752201 0.052340001
-0.30291301 0.27174899 0.052340001
-0.268538 0.26121801 0.052340001
-0.25134999 0.25754401 0.052340001
-0.35447499 0.29609999 0.052340001
-0.364645 0.30189699 0.052340001
-0.37166199 0.30515099 0.052340001
-0.33728799 0.28557 0.052340001
-0.386154 0.35346001 0.052340001
-0.35447499 0.351899 0.052340001
-0.35660401 0.35346001 0.052340001
-0.33728799 0.335724 0.052340001
-0.33768499 0.336272 0.052340001
-0.32010001 0.31931099 0.052340001
-0.30291301 0.308725 0.052340001
-0.31976101 0.319085 0.052340001
-0.285725 0.30387101 0.052340001
-0.27310601 0.319085 0.052340001
-0.268538 0.33223701 0.052340001
-0.257043 0.336272 0.052340001
-0.25134999 0.337185 0.052340001
-0.24365599 0.181584 0.052340001
-0.18260001 0.176183 0.052340001
-0.195684 0.181584 0.052340001
-0.234163 0.18372101 0.052340001
-0.216975 0.18454701 0.052340001
-0.199788 0.182593 0.052340001
-0.16541301 0.174523 0.052340001
-0.14822499 0.176634 0.052340001
-0.146368 0.181584 0.052340001
-0.14822499 0.193211 0.052340001
-0.14937 0.198772 0.052340001
-0.153018 0.215959 0.052340001
-0.234163 0.224115 0.052340001
-0.216975 0.233097 0.052340001
-0.216888 0.233147 0.052340001
-0.199788 0.23918299 0.052340001
-0.18260001 0.238094 0.052340001
-0.234163 0.254628 0.052340001
-0.216975 0.251569 0.052340001
-0.199788 0.25151601 0.052340001
-0.18260001 0.254668 0.052340001
-0.15449101 0.233147 0.052340001
-0.16541301 0.24073599 0.052340001
-0.16541301 0.25770399 0.052340001
-0.15393201 0.26752201 0.052340001
-0.15598901 0.28470999 0.052340001
-0.234163 0.33557999 0.052340001
-0.236636 0.336272 0.052340001
-0.216975 0.331191 0.052340001
-0.16541301 0.29755399 0.052340001
-0.16785599 0.30189699 0.052340001
-0.18260001 0.31762999 0.052340001
-0.37166199 0.35848299 0.052340001
0.16114999 -0.24810299 0.042867001
0.17833801 -0.26528999 0.049564701
0.212712 -0.26528999 0.0491505
0.29865 -0.26528999 0.040065899
0.2299 -0.23091599 0.044559699
0.126775 -0.162165 0.0405109
0.212712 -0.127791 0.044272099
0.2299 -0.127791 0.038334001
0.26427501 -0.144978 0.035261799
0.33302501 -0.162165 0.040011
0.35021299 -0.162165 0.046437401
0.36739999 -0.162165 0.046231899
0.31583801 -0.144978 0.044203799
0.33302501 -0.144978 0.048583299
0.384588 0.00970951 0.040341601
0.43615001 0.00970951 0.050916001
0.401775 0.026897 0.041122701
-0.4576 0.181584 0.039468002
-0.440413 0.164397 0.0399439
-0.40603799 0.164397 0.046112899
-0.440413 0.198772 0.038638402
-0.42322499 0.215959 0.041653901
-0.40603799 0.215959 0.049320899
-0.285725 0.215959 0.047898199
-0.268538 0.215959 0.051374
-0.42322499 0.319085 0.038245302
-0.40603799 0.30189699 0.043812498
-0.38885 0.30189699 0.042660199
-0.42322499 0.336272 0.045815699
-0.33728799 0.28470999 0.045389298
-0.285725 0.26752201 0.038968299
-0.37166199 0.30189699 0.042806
-0.33728799 0.336272 0.051039401
-0.30291301 0.319085 0.036018599
-0.285725 0.319085 0.040169299
-0.268538 0.336272 0.0464135
-0.199788 0.112835 0.0417521
-0.18260001 0.112835 0.044815999
-0.18260001 0.130022 0.037700798
-0.16541301 0.112835 0.0443541
-0.16541301 0.130022 0.040055599
-0.14822499 0.112835 0.039988
-0.14822499 0.130022 0.037577
-0.16541301 0.14721 0.035267401
-0.14822499 0.14721 0.0357485
-0.234163 0.181584 0.036610998
-0.14822499 0.164397 0.041402001
-0.131038 0.164397 0.044470102
-0.131038 0.181584 0.0454561
-0.11385 0.181584 0.035294399
-0.14822499 0.198772 0.0519289
-0.14822499 0.215959 0.0506185
-0.131038 0.198772 0.044130899
-0.11385 0.198772 0.038032498
-0.131038 0.215959 0.042599101
-0.11385 0.215959 0.037975501
-0.18260001 0.25033501 0.044738501
-0.14822499 0.233147 0.0491716
-0.16541301 0.25033501 0.050568499
-0.14822499 0.25033501 0.048440401
-0.14822499 0.26752201 0.04992
-0.14822499 0.28470999 0.048244901
-0.234163 0.336272 0.050345901
-0.216975 0.336272 0.044580799
-0.16541301 0.30189699 0.051457901
-0.14822499 0.30189699 0.045970902
-0.18260001 0.319085 0.051627599
-0.16541301 0.319085 0.047376599
-0.14822499 0.319085 0.044536699
-0.131038 0.28470999 0.042252801
-0.131038 0.30189699 0.040547501
-0.11385 0.28470999 0.037122201
-0.11385 0.30189699 0.035739001
-0.131038 0.319085 0.038006101
-0.16541301 0.336272 0.037181001
-0.14822499 0.336272 0.0421273
-0.131038 0.336272 0.037672799
-0.131038 0.35346001 0.039778501
-0.11385 0.25033501 0.039460499
-0.11385 0.26752201 0.037822299
-0.25134999 -0.27003601 0.052340001
-0.27797499 -0.26528999 0.052340001
-0.32010001 -0.24293201 0.052340001
-0.33252901 -0.23091599 0.052340001
-0.35447499 -0.200303 0.052340001
-0.35636199 -0.196541 0.052340001
-0.285725 -0.26291701 0.052340001
-0.216975 -0.26944399 0.052340001
-0.18260001 -0.26590601 0.052340001
-0.14822499 -0.26602799 0.052340001
-0.11385 -0.26884899 0.052340001
-0.079475001 -0.269481 0.052340001
-0.060904901 -0.26528999 0.052340001
-0.0451 -0.25556499 0.052340001
-0.0201355 -0.23091599 0.052340001
-0.010725 -0.21948101 0.052340001
0.0027902699 -0.196541 0.052340001
-0.367136 -0.162165 0.052340001
-0.371456 -0.127791 0.052340001
-0.370361 -0.093415499 0.052340001
-0.36243099 -0.059040502 0.052340001
-0.35447499 -0.037280399 0.052340001
-0.349213 -0.024665499 0.052340001
-0.329694 0.00970951 0.052340001
-0.32010001 0.022477601 0.052340001
-0.29865199 0.044084501 0.052340001
-0.285725 0.054842699 0.052340001
-0.25134999 0.076008402 0.052340001
-0.14822499 -0.0741321 0.052340001
-0.172216 -0.059040502 0.052340001
-0.11385 -0.0763143 0.052340001
0.0141467 -0.162165 0.052340001
0.0235314 -0.127791 0.052340001
-0.079475001 -0.067248903 0.052340001
-0.062824197 -0.059040502 0.052340001
0.02365 -0.12730201 0.052340001
-0.18260001 -0.0312388 0.052340001
-0.182964 -0.024665499 0.052340001
-0.18260001 -0.0110469 0.052340001
-0.179464 0.00970951 0.052340001
-0.245952 0.078459501 0.052340001
-0.17171399 0.044084501 0.052340001
-0.17321 0.078459501 0.052340001
-0.0451 -0.047679599 0.052340001
-0.0145949 -0.024665499 0.052340001
-0.010725 -0.0218214 0.052340001
0.02365 -0.020864701 0.052340001
0.33302501 -0.270794 0.052340001
0.30936101 -0.26528999 0.052340001
0.36739999 -0.269054 0.052340001
0.375846 -0.26528999 0.052340001
0.401775 -0.246069 0.052340001
0.41297701 -0.23091599 0.052340001
0.42565799 -0.196541 0.052340001
0.152463 -0.127791 0.052340001
0.029789001 -0.093415499 0.052340001
0.0317166 -0.059040502 0.052340001
0.0255883 -0.024665499 0.052340001
0.43615001 -0.167761 0.052340001
0.374208 -0.127791 0.052340001
0.37096 -0.093415499 0.052340001
0.43802699 -0.162165 0.052340001
0.45100901 -0.127791 0.052340001
0.46122199 -0.093415499 0.052340001
0.463175 -0.059040502 0.052340001
0.457212 -0.024665499 0.052340001
-0.216975 0.089309201 0.052340001
-0.18260001 0.089538902 0.052340001
-0.184255 0.319085 0.052340001
-0.285725 -0.26528999 0.039744601
-0.18260001 -0.26528999 0.050653201
-0.14822499 -0.26528999 0.050916299
-0.11385 -0.26528999 0.037740499
-0.0451 -0.26528999 0.0224475
-0.010725 -0.23091599 0.033325098
-0.35447499 -0.024665499 0.038024198
-0.25134999 0.078459501 0.050108999
0.02365 -0.162165 0.040803999
0.02365 -0.127791 0.052230898
-0.079475001 -0.059040502 0.041881699
-0.18260001 -0.024665499 0.051557802
-0.14822499 0.044084501 0.0273336
-0.14822499 0.078459501 0.040623199
-0.0451 -0.024665499 0.0398576
-0.010725 0.00970951 0.043378901
0.02365 0.00970951 0.048753101
-0.010725 0.044084501 0.0302011
0.02365 0.044084501 0.041983102
0.02365 0.078459501 0.033552699
0.058024999 -0.093415499 0.020707101
0.058024999 -0.059040502 0.0320323
0.2299 -0.059040502 0.025577599
0.26427501 -0.059040502 0.0189672
0.058024999 -0.024665499 0.038301401
0.058024999 0.00970951 0.040812701
0.058024999 0.044084501 0.040246099
0.092399999 0.044084501 0.022507999
0.058024999 0.078459501 0.037227899
0.092399999 0.078459501 0.030657001
0.2299 -0.024665499 0.0267886
0.2299 0.00970951 0.0258551
0.26427501 -0.024665499 0.026834801
0.26427501 0.00970951 0.032122999
0.2299 0.044084501 0.0194073
0.26427501 0.044084501 0.033333302
0.26427501 0.078459501 0.032070398
0.29865 0.078459501 0.029384701
0.401775 -0.162165 0.0379472
0.43615001 -0.162165 0.048939101
0.401775 -0.127791 0.0407691
0.43615001 -0.127791 0.037859
0.401775 -0.093415499 0.030031299
0.43615001 -0.093415499 0.027799999
0.02365 0.112835 0.020426299
0.058024999 0.112835 0.031264801
0.092399999 0.112835 0.031702898
0.058024999 0.14721 0.019723499
0.092399999 0.14721 0.027110901
0.126775 0.112835 0.024348199
0.126775 0.14721 0.0273694
0.16114999 0.14721 0.0260437
0.126775 0.181584 0.0188845
0.16114999 0.181584 0.0224414
0.2299 0.112835 0.024116701
0.19552501 0.14721 0.0262237
0.2299 0.14721 0.028381599
0.26427501 0.112835 0.031183099
0.29865 0.112835 0.026541701
0.26427501 0.14721 0.0277179
0.29865 0.14721 0.018459801
0.19552501 0.181584 0.024227999
0.2299 0.181584 0.023020299
-0.32881001 -0.239474 0.029423401
-0.346771 -0.217097 0.031714998
-0.300998 -0.25782099 0.033053301
-0.36607501 -0.17684899 0.029423401
-0.131038 -0.071377598 0.031714998
-0.096381798 -0.065226398 0.033409499
-0.17161299 -0.0416173 0.032585401
-0.17260499 -0.0072042299 0.032585401
-0.137099 0.061229199 0.023302799
-0.054434702 -0.0135473 0.0223435
-0.0259907 0.029127 0.02424
-0.0154425 0.054159999 0.0210241
0.311894 -0.26809099 0.035971399
0.134445 -0.15070701 0.036045201
0.15686899 -0.120021 0.032426201
0.18570399 -0.085865296 0.0203372
0.210125 -0.076923698 0.023290399
0.247927 -0.0768141 0.0211275
0.27422699 -0.041014299 0.019610399
0.285772 -0.0083647398 0.0233608
0.28490001 0.026897 0.029768201
0.378858 -0.175529 0.030568101
0.38513401 -0.070513599 0.032353502
0.315514 0.0584074 0.022846799
0.41771999 0.0287492 0.035477001
-0.202402 0.105031 0.043433599
-0.166712 0.097493596 0.0457436
-0.128803 0.100784 0.027924901
0.0123792 0.095913798 0.0209732
-0.096689902 0.193086 0.0296198
-0.133902 0.23028199 0.044711001
-0.131037 0.269977 0.043323301
-0.198062 0.33438301 0.037971299
-0.094499297 0.238058 0.0336711
0.30728701 0.12860601 0.019477
0.092399999 -0.239457 0.069527499
0.0904148 -0.23091599 0.069527499
0.092399999 -0.22465201 0.069527499
0.109587 -0.242736 0.069527499
0.126775 -0.24067099 0.069527499
0.14396299 -0.235108 0.069527499
0.15018401 -0.23091599 0.069527499
0.100195 -0.213728 0.069527499
0.109587 -0.208405 0.069527499
0.126775 -0.207022 0.069527499
0.16114999 -0.22608 0.069527499
0.13272201 -0.196541 0.069527499
0.19552501 -0.26536 0.069527499
0.195457 -0.26528999 0.069527499
0.212712 -0.272701 0.069527499
0.2299 -0.26936901 0.069527499
0.23713 -0.26528999 0.069527499
0.179947 -0.24810299 0.069527499
0.17833801 -0.24553099 0.069527499
0.16959099 -0.23091599 0.069527499
0.247087 -0.26082501 0.069527499
0.26427501 -0.25917399 0.069527499
0.28146201 -0.260757 0.069527499
0.29865 -0.26152 0.069527499
0.132442 -0.179353 0.069527499
0.134958 -0.162165 0.069527499
0.2299 -0.14920899 0.069527499
0.225091 -0.144978 0.069527499
0.217562 -0.127791 0.069527499
0.247087 -0.152493 0.069527499
0.26427501 -0.153304 0.069527499
0.28146201 -0.153611 0.069527499
0.29865 -0.151004 0.069527499
0.17833801 -0.11224 0.069527499
0.16114999 -0.119912 0.069527499
0.19552501 -0.110868 0.069527499
0.212712 -0.119182 0.069527499
0.3141 -0.144978 0.069527499
0.31583801 -0.144031 0.069527499
0.33302501 -0.132825 0.069527499
0.339645 -0.127791 0.069527499
-0.440413 0.178828 0.069527499
-0.45028099 0.181584 0.069527499
-0.42322499 0.174665 0.069527499
-0.40603799 0.16918001 0.069527499
-0.38885 0.164602 0.069527499
-0.45127001 0.198772 0.069527499
-0.44167399 0.215959 0.069527499
-0.37166199 0.160009 0.069527499
-0.388163 0.164397 0.069527499
-0.35447499 0.15783399 0.069527499
-0.33728799 0.15804601 0.069527499
-0.32010001 0.160843 0.069527499
-0.37166199 0.21496201 0.069527499
-0.374412 0.215959 0.069527499
-0.35447499 0.21039601 0.069527499
-0.33728799 0.20893499 0.069527499
-0.32010001 0.205185 0.069527499
-0.307078 0.164397 0.069527499
-0.30291301 0.165703 0.069527499
-0.285725 0.17128 0.069527499
-0.268538 0.175108 0.069527499
-0.25134999 0.176964 0.069527499
-0.30291301 0.203076 0.069527499
-0.285725 0.206071 0.069527499
-0.268538 0.21096601 0.069527499
-0.25749999 0.215959 0.069527499
-0.440413 0.227098 0.069527499
-0.42322499 0.231785 0.069527499
-0.40603799 0.226989 0.069527499
-0.38885 0.220625 0.069527499
-0.38885 0.30749801 0.069527499
-0.40201399 0.319085 0.069527499
-0.40603799 0.332587 0.069527499
-0.40809599 0.336272 0.069527499
-0.40603799 0.347204 0.069527499
-0.38885 0.347929 0.069527499
-0.33728799 0.28224301 0.069527499
-0.341102 0.28470999 0.069527499
-0.32010001 0.27492899 0.069527499
-0.25134999 0.218969 0.069527499
-0.285725 0.26269501 0.069527499
-0.30061299 0.26752201 0.069527499
-0.30291301 0.26835299 0.069527499
-0.268538 0.25770301 0.069527499
-0.25134999 0.25343499 0.069527499
-0.35447499 0.295672 0.069527499
-0.365603 0.30189699 0.069527499
-0.37166199 0.303707 0.069527499
-0.32010001 0.311288 0.069527499
-0.32967901 0.319085 0.069527499
-0.37166199 0.34698501 0.069527499
-0.35447499 0.34441501 0.069527499
-0.33728799 0.32598799 0.069527499
-0.34558299 0.336272 0.069527499
-0.30291301 0.30508599 0.069527499
-0.285725 0.30198801 0.069527499
-0.268538 0.29989699 0.069527499
-0.28541201 0.30189699 0.069527499
-0.25134999 0.298484 0.069527499
-0.234163 0.176167 0.069527499
-0.216975 0.17367201 0.069527499
-0.199788 0.172934 0.069527499
-0.186488 0.181584 0.069527499
-0.193298 0.198772 0.069527499
-0.199788 0.20556501 0.069527499
-0.208543 0.215959 0.069527499
-0.234163 0.223885 0.069527499
-0.216975 0.22149099 0.069527499
-0.234163 0.25312501 0.069527499
-0.216975 0.25712001 0.069527499
-0.199788 0.266781 0.069527499
-0.198715 0.26752201 0.069527499
-0.196898 0.28470999 0.069527499
-0.234163 0.29790801 0.069527499
-0.216975 0.296249 0.069527499
0.092399999 -0.23091599 0.059046902
0.109587 -0.23091599 0.052701499
0.126775 -0.23091599 0.052687202
0.14396299 -0.23091599 0.066046998
0.16114999 -0.23091599 0.056937601
0.109587 -0.213728 0.0581805
0.126775 -0.213728 0.055507801
0.2299 -0.26528999 0.065254897
0.17833801 -0.24810299 0.067168497
0.126775 -0.179353 0.053663701
0.2299 -0.144978 0.060075302
0.212712 -0.127791 0.064659901
0.247087 -0.144978 0.052616999
0.35021299 -0.144978 0.0526421
0.36739999 -0.144978 0.052820601
0.35021299 -0.127791 0.058446601
0.36739999 -0.127791 0.054450899
-0.4576 0.181584 0.062187102
-0.38885 0.164397 0.068560503
-0.440413 0.215959 0.067209199
-0.38885 0.215959 0.0562177
-0.30291301 0.164397 0.064243898
-0.40603799 0.319085 0.060517602
-0.33728799 0.28470999 0.062962197
-0.32010001 0.319085 0.052845102
-0.37166199 0.35346001 0.060499702
-0.268538 0.30189699 0.065476999
-0.25134999 0.30189699 0.066385403
-0.268538 0.319085 0.059063599
