# .PCD v0.7 - Point Cloud Data file format
VERSION 0.7
FIELDS x y z
SIZE 4 4 4
TYPE F F F
COUNT 1 1 1
WIDTH 1494
HEIGHT 1
VIEWPOINT 0 0 0 1 0 0 0
POINTS 1494
DATA ascii
0.231684 -0.235212 0.0437463
0.23419701 -0.23095299 0.0437463
0.234247 -0.23091599 0.0437463
0.28146201 -0.25885201 0.0437463
0.27736601 -0.256697 0.0437463
0.27286899 -0.25314301 0.0437463
0.27187601 -0.25240001 0.0437463
0.268572 -0.25098899 0.0437463
0.27716601 -0.256477 0.0437463
0.29005599 -0.261253 0.0437463
0.28868699 -0.26099399 0.0437463
0.285759 -0.26009801 0.0437463
0.23849399 -0.22765601 0.0437463
0.243747 -0.222322 0.0437463
0.246548 -0.218025 0.0437463
0.247087 -0.217052 0.0437463
0.248879 -0.213728 0.0437463
0.25102499 -0.20943099 0.0437463
0.25138399 -0.208639 0.0437463
0.253149 -0.205134 0.0437463
0.25536501 -0.200837 0.0437463
0.25568101 -0.20018999 0.0437463
0.257579 -0.196541 0.0437463
0.324431 -0.27092299 0.0437463
0.32054299 -0.26958701 0.0437463
0.32013401 -0.269445 0.0437463
0.31583801 -0.26779199 0.0437463
0.32872799 -0.27246699 0.0437463
0.33302501 -0.273554 0.0437463
0.337322 -0.27389199 0.0437463
0.33639401 -0.273884 0.0437463
0.33780301 -0.273884 0.0437463
0.34161901 -0.273727 0.0437463
0.345916 -0.27329001 0.0437463
0.35021299 -0.27257299 0.0437463
0.38029099 -0.26122099 0.0437463
0.375994 -0.263044 0.0437463
0.38089001 -0.26099399 0.0437463
0.384588 -0.25916699 0.0437463
0.38877001 -0.256697 0.0437463
0.38888401 -0.256623 0.0437463
0.393181 -0.253214 0.0437463
0.39413801 -0.25240001 0.0437463
0.39747801 -0.249137 0.0437463
0.398415 -0.24810299 0.0437463
0.401775 -0.244351 0.0437463
0.40224901 -0.243806 0.0437463
0.40587199 -0.239509 0.0437463
0.40607199 -0.239226 0.0437463
0.40884301 -0.235212 0.0437463
0.41036901 -0.232925 0.0437463
0.41135201 -0.23091599 0.0437463
0.41350099 -0.22661901 0.0437463
0.414666 -0.224062 0.0437463
0.41529599 -0.222322 0.0437463
0.41981599 -0.205134 0.0437463
0.42122099 -0.200837 0.0437463
0.422649 -0.196541 0.0437463
0.126775 -0.188315 0.0437463
0.126663 -0.18794701 0.0437463
0.128214 -0.19224399 0.0437463
0.12786201 -0.15357199 0.0437463
0.12974399 -0.149275 0.0437463
0.131072 -0.14650699 0.0437463
0.13189 -0.144978 0.0437463
0.13469601 -0.140681 0.0437463
0.135369 -0.139759 0.0437463
0.13802999 -0.136384 0.0437463
0.13966601 -0.134652 0.0437463
0.142693 -0.13208701 0.0437463
0.14396299 -0.131136 0.0437463
0.0388324 -0.102009 0.0437463
0.0399279 -0.097712398 0.0437463
0.0408375 -0.094157197 0.0437463
0.0410113 -0.093415499 0.0437463
0.042123601 -0.0891186 0.0437463
0.0431173 -0.084821798 0.0437463
0.0437763 -0.080524899 0.0437463
0.044330601 -0.076228 0.0437463
0.044797499 -0.071931101 0.0437463
0.044921301 -0.067634203 0.0437463
0.0451282 -0.063337401 0.0437463
0.045134399 -0.063286804 0.0437463
0.0459272 -0.059040502 0.0437463
0.21700899 -0.12905 0.0437463
0.213393 -0.127791 0.0437463
0.221306 -0.130247 0.0437463
0.2299 -0.133434 0.0437463
0.22574601 -0.13208701 0.0437463
0.225603 -0.13203301 0.0437463
0.25995001 -0.19224399 0.0437463
0.259978 -0.192197 0.0437463
0.26258099 -0.18794701 0.0437463
0.26427501 -0.18528 0.0437463
0.28133401 -0.196541 0.0437463
0.28146201 -0.19628499 0.0437463
0.26537701 -0.18365 0.0437463
0.268206 -0.179353 0.0437463
0.28345501 -0.19224399 0.0437463
0.285512 -0.18794701 0.0437463
0.285759 -0.187402 0.0437463
0.28734899 -0.18365 0.0437463
0.28874201 -0.179353 0.0437463
0.268572 -0.178747 0.0437463
0.270722 -0.175056 0.0437463
0.27225801 -0.17075901 0.0437463
0.27286899 -0.16902401 0.0437463
0.27390701 -0.166462 0.0437463
0.27716601 -0.16285799 0.0437463
0.28146201 -0.163173 0.0437463
0.289424 -0.175056 0.0437463
0.289042 -0.17075901 0.0437463
0.28689599 -0.166462 0.0437463
0.285759 -0.16526499 0.0437463
0.23849399 -0.13716701 0.0437463
0.237001 -0.136384 0.0437463
0.23419701 -0.135014 0.0437463
0.27286899 -0.149977 0.0437463
0.271272 -0.149275 0.0437463
0.268572 -0.14828999 0.0437463
0.26427501 -0.147286 0.0437463
0.27716601 -0.150406 0.0437463
0.28146201 -0.150702 0.0437463
0.285759 -0.150337 0.0437463
0.28814599 -0.149275 0.0437463
0.29005599 -0.148559 0.0437463
0.29435301 -0.14726301 0.0437463
0.29865 -0.146138 0.0437463
0.165447 -0.12165 0.0437463
0.16114999 -0.122704 0.0437463
0.169744 -0.120856 0.0437463
0.174041 -0.120161 0.0437463
0.17833801 -0.119866 0.0437463
0.182634 -0.120116 0.0437463
0.186931 -0.120456 0.0437463
0.191228 -0.121443 0.0437463
0.19552501 -0.122928 0.0437463
0.19982199 -0.124112 0.0437463
0.198404 -0.123494 0.0437463
0.204119 -0.126003 0.0437463
0.208416 -0.126646 0.0437463
0.212712 -0.12748 0.0437463
0.046634302 -0.054743599 0.0437463
0.047645301 -0.0504467 0.0437463
0.0490482 -0.046149898 0.0437463
0.049431302 -0.044544 0.0437463
0.0499686 -0.041852999 0.0437463
0.050968099 -0.037556101 0.0437463
0.0516297 -0.033259202 0.0437463
0.05147 -0.0289624 0.0437463
0.051479999 -0.024665499 0.0437463
0.34161901 -0.163452 0.0437463
0.33832201 -0.162165 0.0437463
0.345916 -0.164821 0.0437463
0.35021299 -0.166153 0.0437463
0.30294701 -0.14567401 0.0437463
0.307244 -0.145446 0.0437463
0.31154099 -0.145484 0.0437463
0.31583801 -0.146218 0.0437463
0.33302501 -0.15807199 0.0437463
0.332827 -0.157869 0.0437463
0.32958901 -0.15357199 0.0437463
0.324431 -0.14945801 0.0437463
0.323953 -0.149275 0.0437463
0.32013401 -0.14769401 0.0437463
0.32872799 -0.15220401 0.0437463
0.337322 -0.161616 0.0437463
0.42325899 -0.194581 0.0437463
0.42457101 -0.19224399 0.0437463
0.42667201 -0.18794701 0.0437463
0.42755601 -0.184752 0.0437463
0.42795199 -0.18365 0.0437463
0.42971101 -0.179353 0.0437463
0.393181 -0.113355 0.0437463
0.39225501 -0.110603 0.0437463
0.39564201 -0.119197 0.0437463
0.39386201 -0.1149 0.0437463
0.375994 -0.093983799 0.0437463
0.375231 -0.093415499 0.0437463
0.384588 -0.098056398 0.0437463
0.384056 -0.097712398 0.0437463
0.38029099 -0.095892496 0.0437463
0.390663 -0.106306 0.0437463
0.38888401 -0.102585 0.0437463
0.38851401 -0.102009 0.0437463
0.37176901 -0.0891186 0.0437463
0.37169701 -0.088929102 0.0437463
0.36939999 -0.084821798 0.0437463
0.36864299 -0.080524899 0.0437463
0.36912 -0.076228 0.0437463
0.36903799 -0.071931101 0.0437463
0.36938301 -0.067634203 0.0437463
0.369932 -0.063337401 0.0437463
0.370424 -0.059040502 0.0437463
0.44701299 -0.119197 0.0437463
0.44869 -0.1149 0.0437463
0.44904101 -0.114102 0.0437463
0.451107 -0.110603 0.0437463
0.45313099 -0.106306 0.0437463
0.45333701 -0.105803 0.0437463
0.37116301 -0.054743599 0.0437463
0.37169701 -0.052775301 0.0437463
0.37236601 -0.0504467 0.0437463
0.373676 -0.046149898 0.0437463
0.37476701 -0.041852999 0.0437463
0.375994 -0.0377733 0.0437463
0.376082 -0.037556101 0.0437463
0.37737301 -0.033259202 0.0437463
0.37823701 -0.0289624 0.0437463
0.37904701 -0.024665499 0.0437463
0.418962 0.025566099 0.0437463
0.41558599 0.026897 0.0437463
0.43615001 0.0152665 0.0437463
0.43196401 0.018303299 0.0437463
0.42755601 0.02079 0.0437463
0.42420599 0.022600099 0.0437463
0.42325899 0.023177 0.0437463
0.431853 0.018372601 0.0437463
0.414666 0.0271092 0.0437463
0.41036901 0.027507801 0.0437463
0.453035 -0.0074780001 0.0437463
0.45082599 -0.0031811299 0.0437463
0.44904101 0.00014721999 0.0437463
0.44850001 0.00111574 0.0437463
0.44474399 0.0067125298 0.0437463
0.442312 0.00970951 0.0437463
0.44571 0.0054126401 0.0437463
0.440447 0.0115929 0.0437463
0.437657 0.0140064 0.0437463
-0.4576 0.16682599 0.0437463
-0.45955601 0.168694 0.0437463
-0.46189699 0.17290799 0.0437463
-0.461907 0.17299099 0.0437463
-0.46221501 0.177288 0.0437463
-0.46189699 0.179561 0.0437463
-0.46104401 0.181584 0.0437463
-0.4576 0.185734 0.0437463
-0.45330301 0.16467801 0.0437463
-0.44900599 0.164959 0.0437463
-0.444709 0.16577201 0.0437463
-0.440413 0.16719501 0.0437463
-0.437971 0.168694 0.0437463
-0.43611601 0.16913299 0.0437463
-0.43181899 0.16987599 0.0437463
-0.427522 0.170377 0.0437463
-0.42322499 0.169735 0.0437463
-0.41463101 0.167604 0.0437463
-0.41790199 0.168694 0.0437463
-0.418928 0.168955 0.0437463
-0.41033399 0.16599999 0.0437463
-0.40603799 0.16449501 0.0437463
-0.457398 0.185881 0.0437463
-0.45330301 0.18912201 0.0437463
-0.45171201 0.19017801 0.0437463
-0.44900599 0.191609 0.0437463
-0.44566599 0.194475 0.0437463
-0.444709 0.19578201 0.0437463
-0.44233799 0.198772 0.0437463
-0.440413 0.201194 0.0437463
-0.438467 0.203069 0.0437463
-0.43611601 0.205017 0.0437463
-0.43359101 0.207366 0.0437463
-0.43181899 0.209049 0.0437463
-0.429409 0.21166299 0.0437463
-0.427522 0.214191 0.0437463
-0.42626101 0.215959 0.0437463
-0.40603799 0.20756499 0.0437463
-0.410207 0.21166299 0.0437463
-0.41033399 0.211841 0.0437463
-0.414626 0.215959 0.0437463
-0.401741 0.20454501 0.0437463
-0.40579 0.207366 0.0437463
-0.39744401 0.204252 0.0437463
-0.39314699 0.20440701 0.0437463
-0.38885 0.20589299 0.0437463
-0.25994399 0.080191299 0.0437463
-0.25577199 0.0827564 0.0437463
-0.255647 0.082834102 0.0437463
-0.25134999 0.085900404 0.0437463
-0.38455299 0.207249 0.0437463
-0.38362801 0.207366 0.0437463
-0.380256 0.208075 0.0437463
-0.37595901 0.208498 0.0437463
-0.37166199 0.208791 0.0437463
-0.36736599 0.209058 0.0437463
-0.363069 0.20895299 0.0437463
-0.35877201 0.209381 0.0437463
-0.35447499 0.209929 0.0437463
-0.293046 0.164397 0.0437463
-0.294319 0.164142 0.0437463
-0.29002199 0.16516 0.0437463
-0.285725 0.166877 0.0437463
-0.281804 0.168694 0.0437463
-0.28142801 0.168861 0.0437463
-0.27713099 0.17104 0.0437463
-0.27308899 0.17299099 0.0437463
-0.272834 0.17308401 0.0437463
-0.268538 0.174086 0.0437463
-0.26424101 0.175072 0.0437463
-0.25994399 0.17674699 0.0437463
-0.25861901 0.177288 0.0437463
-0.255647 0.178312 0.0437463
-0.25134999 0.17958499 0.0437463
-0.42322499 0.21746001 0.0437463
-0.418928 0.21797501 0.0437463
-0.41463101 0.215967 0.0437463
-0.401741 0.30126899 0.0437463
-0.40408099 0.30189699 0.0437463
-0.39744401 0.301245 0.0437463
-0.39426401 0.30189699 0.0437463
-0.40603799 0.3035 0.0437463
-0.407951 0.30619401 0.0437463
-0.410274 0.310491 0.0437463
-0.41463101 0.318755 0.0437463
-0.414868 0.319085 0.0437463
-0.41033399 0.31071201 0.0437463
-0.41196299 0.31478801 0.0437463
-0.39314699 0.302156 0.0437463
-0.38885 0.30341101 0.0437463
-0.42322499 0.32774699 0.0437463
-0.42508399 0.33197501 0.0437463
-0.42547801 0.336272 0.0437463
-0.42372799 0.34056899 0.0437463
-0.42322499 0.34095699 0.0437463
-0.418928 0.32327101 0.0437463
-0.419081 0.32338101 0.0437463
-0.423181 0.32767799 0.0437463
-0.418928 0.34377399 0.0437463
-0.41734499 0.34486601 0.0437463
-0.41463101 0.34558901 0.0437463
-0.41033399 0.34611601 0.0437463
-0.40603799 0.34653199 0.0437463
-0.401741 0.34633699 0.0437463
-0.39744401 0.346178 0.0437463
-0.39314699 0.347691 0.0437463
-0.391361 0.349163 0.0437463
-0.38885 0.351307 0.0437463
-0.332991 0.283319 0.0437463
-0.33549601 0.28470999 0.0437463
-0.32869399 0.28058401 0.0437463
-0.324397 0.27895799 0.0437463
-0.32848999 0.280413 0.0437463
-0.32010001 0.27835399 0.0437463
-0.26424101 0.217711 0.0437463
-0.268538 0.217581 0.0437463
-0.25994399 0.217943 0.0437463
-0.255647 0.218302 0.0437463
-0.25134999 0.219014 0.0437463
-0.36736599 0.30174601 0.0437463
-0.367695 0.30189699 0.0437463
-0.363069 0.29951999 0.0437463
-0.35877201 0.297133 0.0437463
-0.35962099 0.2976 0.0437463
-0.35447499 0.29473799 0.0437463
-0.38455299 0.304517 0.0437463
-0.380256 0.304851 0.0437463
-0.37595901 0.304537 0.0437463
-0.37166199 0.30350399 0.0437463
-0.350178 0.29242599 0.0437463
-0.35183099 0.29330301 0.0437463
-0.34588099 0.29026201 0.0437463
-0.341584 0.28825799 0.0437463
-0.34316799 0.28900599 0.0437463
-0.33728799 0.28579101 0.0437463
-0.38616401 0.35346001 0.0437463
-0.32869399 0.32674599 0.0437463
-0.329521 0.32767799 0.0437463
-0.324397 0.32301 0.0437463
-0.324875 0.32338101 0.0437463
-0.32010001 0.31988001 0.0437463
-0.33290401 0.33197501 0.0437463
-0.332991 0.33209699 0.0437463
-0.33617499 0.336272 0.0437463
-0.33728799 0.33766001 0.0437463
-0.33965501 0.34056899 0.0437463
-0.341584 0.34292001 0.0437463
-0.343292 0.34486601 0.0437463
-0.34588099 0.34756699 0.0437463
-0.34754401 0.349163 0.0437463
-0.350178 0.35145101 0.0437463
-0.35291901 0.35346001 0.0437463
-0.31580299 0.31797001 0.0437463
-0.31866899 0.319085 0.0437463
-0.311506 0.31647301 0.0437463
-0.30291301 0.31357899 0.0437463
-0.30666101 0.31478801 0.0437463
-0.30720901 0.314924 0.0437463
-0.294319 0.30879399 0.0437463
-0.29766199 0.310491 0.0437463
-0.29002199 0.30709499 0.0437463
-0.285725 0.30641001 0.0437463
-0.29861599 0.31107101 0.0437463
-0.28142801 0.307533 0.0437463
-0.27850401 0.310491 0.0437463
-0.27713099 0.31296399 0.0437463
-0.27713099 0.31826499 0.0437463
-0.27764601 0.319085 0.0437463
-0.27659601 0.31478801 0.0437463
-0.27992299 0.32338101 0.0437463
-0.28010601 0.32767799 0.0437463
-0.27928701 0.33197501 0.0437463
-0.27713099 0.33453599 0.0437463
-0.27445301 0.336272 0.0437463
-0.272834 0.33742699 0.0437463
-0.268538 0.33848599 0.0437463
-0.249768 0.087053202 0.0437463
-0.247053 0.088799499 0.0437463
-0.24275599 0.091112703 0.0437463
-0.242229 0.091350101 0.0437463
-0.23845901 0.0928654 0.0437463
-0.234163 0.094567701 0.0437463
-0.231244 0.095647 0.0437463
-0.229866 0.096156202 0.0437463
-0.22556899 0.097831599 0.0437463
-0.22127201 0.099570401 0.0437463
-0.220397 0.099943899 0.0437463
-0.216975 0.101229 0.0437463
-0.212678 0.103067 0.0437463
-0.210254 0.104241 0.0437463
-0.208381 0.105085 0.0437463
-0.18260001 0.18070801 0.0437463
-0.184857 0.181584 0.0437463
-0.20408399 0.185819 0.0437463
-0.208381 0.18550999 0.0437463
-0.199788 0.185159 0.0437463
-0.195491 0.184249 0.0437463
-0.191194 0.18326101 0.0437463
-0.18689699 0.18209299 0.0437463
-0.178303 0.179464 0.0437463
-0.174006 0.17786001 0.0437463
-0.169709 0.175779 0.0437463
-0.17295399 0.177288 0.0437463
-0.16541301 0.17389999 0.0437463
-0.161116 0.172094 0.0437463
-0.16318201 0.17299099 0.0437463
-0.156819 0.16987801 0.0437463
-0.152522 0.16765399 0.0437463
-0.154522 0.168694 0.0437463
-0.14822499 0.164836 0.0437463
-0.14392801 0.162228 0.0437463
-0.14764 0.164397 0.0437463
-0.139631 0.160887 0.0437463
-0.135334 0.161295 0.0437463
-0.131038 0.16288701 0.0437463
-0.129925 0.164397 0.0437463
-0.12839299 0.168694 0.0437463
-0.127648 0.17299099 0.0437463
-0.127242 0.177288 0.0437463
-0.12674101 0.17913499 0.0437463
-0.125965 0.181584 0.0437463
-0.123981 0.185881 0.0437463
-0.124685 0.19017801 0.0437463
-0.126223 0.194475 0.0437463
-0.12674101 0.197266 0.0437463
-0.12753101 0.198772 0.0437463
-0.131038 0.203299 0.0437463
-0.13310499 0.207366 0.0437463
-0.134804 0.21166299 0.0437463
-0.135334 0.212872 0.0437463
-0.136838 0.215959 0.0437463
-0.13087 0.203069 0.0437463
-0.247053 0.21899401 0.0437463
-0.24275599 0.21943299 0.0437463
-0.24055199 0.220256 0.0437463
-0.23845901 0.220805 0.0437463
-0.234163 0.221706 0.0437463
-0.229866 0.22318999 0.0437463
-0.227439 0.224553 0.0437463
-0.22556899 0.225555 0.0437463
-0.22127201 0.227723 0.0437463
-0.21901201 0.22885001 0.0437463
-0.216975 0.229901 0.0437463
-0.212678 0.232695 0.0437463
-0.21196 0.233147 0.0437463
-0.208381 0.235165 0.0437463
-0.20408399 0.237067 0.0437463
-0.202834 0.237444 0.0437463
-0.199788 0.238323 0.0437463
-0.195491 0.239592 0.0437463
-0.191194 0.240895 0.0437463
-0.187373 0.241741 0.0437463
-0.18689699 0.241795 0.0437463
-0.18260001 0.24243 0.0437463
-0.18260001 0.249264 0.0437463
-0.18316799 0.25033501 0.0437463
-0.216975 0.25453699 0.0437463
-0.21761701 0.25463101 0.0437463
-0.22127201 0.25500101 0.0437463
-0.22556899 0.25560099 0.0437463
-0.212678 0.25415301 0.0437463
-0.208381 0.25393701 0.0437463
-0.20408399 0.25361899 0.0437463
-0.199788 0.253317 0.0437463
-0.195491 0.25291699 0.0437463
-0.191194 0.25229999 0.0437463
-0.18689699 0.252074 0.0437463
-0.17974301 0.246038 0.0437463
-0.136595 0.241741 0.0437463
-0.137128 0.246038 0.0437463
-0.137747 0.25033501 0.0437463
-0.138622 0.25463101 0.0437463
-0.13752399 0.258928 0.0437463
-0.135334 0.26052099 0.0437463
-0.131455 0.26322499 0.0437463
-0.131038 0.26350099 0.0437463
-0.127351 0.26752201 0.0437463
-0.131038 0.27462301 0.0437463
-0.131566 0.27611601 0.0437463
-0.133094 0.280413 0.0437463
-0.135334 0.28448299 0.0437463
-0.135507 0.28470999 0.0437463
-0.12992799 0.271819 0.0437463
-0.229866 0.33799401 0.0437463
-0.234163 0.338615 0.0437463
-0.22556899 0.33761501 0.0437463
-0.22127201 0.33800301 0.0437463
-0.216975 0.33907101 0.0437463
-0.191194 0.33369899 0.0437463
-0.19533201 0.336272 0.0437463
-0.18689699 0.33123901 0.0437463
-0.18837699 0.33197501 0.0437463
-0.18260001 0.32952499 0.0437463
-0.212678 0.33944601 0.0437463
-0.208381 0.339448 0.0437463
-0.20408399 0.339277 0.0437463
-0.199788 0.338447 0.0437463
-0.195491 0.33638799 0.0437463
-0.141196 0.310491 0.0437463
-0.14204399 0.31478801 0.0437463
-0.14392801 0.317875 0.0437463
-0.145399 0.319085 0.0437463
-0.178303 0.328592 0.0437463
-0.174006 0.32809699 0.0437463
-0.169709 0.327811 0.0437463
-0.16541301 0.32857099 0.0437463
-0.14822499 0.32066599 0.0437463
-0.150619 0.32338101 0.0437463
-0.152363 0.32767799 0.0437463
-0.161116 0.33005801 0.0437463
-0.158595 0.33197501 0.0437463
-0.156819 0.33378899 0.0437463
-0.152522 0.32981399 0.0437463
-0.152871 0.33197501 0.0437463
-0.38455299 0.35463601 0.0437463
-0.380256 0.35707301 0.0437463
-0.378497 0.35775599 0.0437463
-0.37595901 0.358603 0.0437463
-0.37166199 0.35921699 0.0437463
-0.36736599 0.35905901 0.0437463
-0.363069 0.358327 0.0437463
-0.35877201 0.35681799 0.0437463
-0.36115199 0.35775599 0.0437463
-0.35447499 0.35444301 0.0437463
-0.350178 -0.210264 0.0437463
-0.35059401 -0.20943099 0.0437463
-0.34847 -0.213728 0.0437463
-0.35330701 -0.205134 0.0437463
-0.35447499 -0.203564 0.0437463
-0.22127201 -0.26752901 0.0437463
-0.216975 -0.26639599 0.0437463
-0.118147 -0.26599199 0.0437463
-0.120223 -0.26528999 0.0437463
-0.11385 -0.26705199 0.0437463
-0.109553 -0.267829 0.0437463
-0.053357601 -0.26528999 0.0437463
-0.049396899 -0.26312 0.0437463
-0.0456848 -0.26099399 0.0437463
-0.31040701 0.039787699 0.0437463
-0.311506 0.038366199 0.0437463
-0.30720901 0.0436529 0.0437463
-0.306815 0.044084501 0.0437463
0.0208716 -0.162165 0.0437463
0.022257401 -0.157869 0.0437463
0.023495199 -0.15357199 0.0437463
0.02365 -0.152996 0.0437463
-0.229866 0.184229 0.0437463
-0.234163 0.183323 0.0437463
-0.22556899 0.184651 0.0437463
-0.22127201 0.184894 0.0437463
-0.216975 0.184879 0.0437463
-0.212678 0.184974 0.0437463
-0.229866 -0.26958701 0.0415182
-0.096662499 -0.26958701 0.041994601
-0.0923656 -0.26958701 0.039749902
-0.0451 -0.26099399 0.0429308
-0.0150219 -0.23091599 0.042870399
-0.010725 -0.22661901 0.040826298
-0.0064281202 -0.218025 0.0433814
-0.00213128 -0.213728 0.041862302
0.00216562 -0.20943099 0.039678
0.00216562 -0.205134 0.042212099
0.0064625102 -0.196541 0.0417757
-0.36736599 -0.067634203 0.043053299
-0.363069 -0.054743599 0.0423874
-0.363069 -0.0504467 0.040961999
-0.35877201 -0.037556101 0.041037299
-0.35447499 -0.0289624 0.040197201
-0.26424101 0.078459501 0.042743601
-0.16541301 -0.063337401 0.043373398
-0.169709 -0.059040502 0.043409601
0.0107593 -0.18794701 0.041866999
-0.096662499 -0.067634203 0.040154301
-0.0923656 -0.067634203 0.043743201
-0.079475001 -0.059040502 0.043012101
-0.178303 -0.041852999 0.043692701
-0.178303 -0.037556101 0.041289501
-0.178303 -0.033259202 0.040105101
-0.178303 -0.0160717 0.041491799
-0.178303 -0.0117749 0.0430336
-0.174006 0.00111574 0.039951399
-0.174006 0.0054126401 0.042350501
-0.169709 0.0140064 0.0406151
-0.169709 0.018303299 0.0429518
-0.16541301 0.026897 0.040924199
-0.156819 0.052678201 0.042502299
-0.156819 0.0569751 0.0435073
-0.152522 0.0569751 0.0396901
-0.152522 0.061271999 0.040831
-0.152522 0.065568902 0.041844901
-0.152522 0.0698658 0.0424481
-0.152522 0.074162602 0.0428451
-0.14822499 0.074162602 0.040139701
-0.152522 0.078459501 0.043273699
-0.14822499 0.078459501 0.040962499
-0.070881203 -0.0504467 0.0403019
-0.066584401 -0.0504467 0.0433526
-0.062287498 -0.046149898 0.0416467
-0.057990599 -0.041852999 0.0413436
-0.053693801 -0.037556101 0.042107001
-0.049396899 -0.033259202 0.042805701
-0.049396899 -0.0289624 0.039774802
-0.0451 -0.0289624 0.0427696
-0.0451 -0.024665499 0.039820001
-0.040803101 -0.024665499 0.042571198
-0.027912499 -0.0074780001 0.0431168
-0.0322094 -0.0074780001 0.0408572
-0.027912499 -0.0031811299 0.0418754
-0.027912499 0.00111574 0.040133599
-0.023615699 -0.0031811299 0.043267298
-0.023615699 0.00111574 0.041731901
-0.0193188 0.00111574 0.043085199
-0.023615699 0.0054126401 0.0398614
-0.0193188 0.0054126401 0.0414644
-0.0193188 0.00970951 0.040051699
-0.0150219 0.0054126401 0.043248702
-0.0150219 0.00970951 0.042124402
-0.0150219 0.0140064 0.040800098
-0.010725 0.0140064 0.0428329
-0.010725 0.018303299 0.041533001
-0.0064281202 0.018303299 0.043075901
-0.010725 0.022600099 0.040074501
-0.0064281202 0.022600099 0.041676499
-0.00213128 0.022600099 0.0429077
-0.0064281202 0.026897 0.040072002
-0.00213128 0.026897 0.0413405
0.00216562 0.026897 0.042374201
0.0064625102 0.026897 0.043345399
-0.00213128 0.031193901 0.0398454
0.00216562 0.031193901 0.040838499
0.0064625102 0.031193901 0.041806299
0.00216562 0.0354908 0.039655399
0.0064625102 0.0354908 0.0405486
0.0064625102 0.039787699 0.0397599
0.0107593 0.031193901 0.042870101
0.0107593 0.0354908 0.041729599
0.0150562 0.0354908 0.042922702
0.0107593 0.039787699 0.040904298
0.0150562 0.039787699 0.0419566
0.0107593 0.044084501 0.040150501
0.0150562 0.044084501 0.0411947
0.16114999 -0.24810299 0.041599099
0.15685301 -0.239509 0.041170899
0.152556 -0.23091599 0.039770201
0.148259 -0.222322 0.042125002
0.204119 -0.26958701 0.042101301
0.208416 -0.26528999 0.0405039
0.169744 -0.26099399 0.042898901
0.165447 -0.256697 0.040606599
0.212712 -0.26099399 0.042070899
0.21700899 -0.256697 0.0402756
0.221306 -0.256697 0.041468099
0.225603 -0.26099399 0.0432337
0.225603 -0.243806 0.0414587
0.2299 -0.243806 0.0418876
0.225603 -0.239509 0.0437437
0.2299 -0.239509 0.0420863
0.247087 -0.256697 0.042495102
0.26427501 -0.25240001 0.0420487
0.27716601 -0.256697 0.0418575
0.268572 -0.25240001 0.041638698
0.23849399 -0.22661901 0.042764701
0.242791 -0.222322 0.042932902
0.247087 -0.213728 0.040168099
0.25138399 -0.205134 0.040440101
0.25568101 -0.196541 0.040395301
0.33302501 -0.273884 0.039853401
0.32013401 -0.26958701 0.0433551
0.384588 -0.26099399 0.039855801
0.38888401 -0.256697 0.043595299
0.40607199 -0.239509 0.043393001
0.41036901 -0.235212 0.0411736
0.414666 -0.22661901 0.040307701
0.418962 -0.205134 0.042183299
0.418962 -0.200837 0.040839098
0.418962 -0.196541 0.040061999
0.126775 -0.18794701 0.042555001
0.0408375 -0.102009 0.041484602
0.0408375 -0.097712398 0.04276
0.0408375 -0.106306 0.040147498
0.045134399 -0.0891186 0.0402021
0.045134399 -0.084821798 0.0413366
0.045134399 -0.080524899 0.0422468
0.045134399 -0.076228 0.0429269
0.045134399 -0.071931101 0.0434389
0.045134399 -0.067634203 0.043540001
0.049431302 -0.067634203 0.039511699
0.045134399 -0.063337401 0.043739699
0.049431302 -0.063337401 0.039866999
0.049431302 -0.059040502 0.0407032
0.21700899 -0.127791 0.042605899
0.221306 -0.127791 0.0412018
0.2299 -0.13208701 0.042064801
0.225603 -0.127791 0.0395119
0.26427501 -0.18365 0.041721798
0.28146201 -0.196541 0.043628
0.285759 -0.19224399 0.040676899
0.285759 -0.18794701 0.043439299
0.29005599 -0.179353 0.041150201
0.27286899 -0.17075901 0.039872698
0.27716601 -0.17075901 0.0402366
0.27716601 -0.166462 0.040158998
0.29005599 -0.175056 0.042630099
0.29005599 -0.17075901 0.042017799
0.23849399 -0.136384 0.0427735
0.23419701 -0.13208701 0.039891701
0.16114999 -0.123494 0.0408234
0.19982199 -0.123494 0.042591099
0.204119 -0.123494 0.040938299
0.208416 -0.123494 0.0409787
0.212712 -0.123494 0.040445998
0.049431302 -0.054743599 0.041572999
0.049431302 -0.0504467 0.042498302
0.049431302 -0.046149898 0.043501701
0.0537281 -0.046149898 0.0403473
0.0537281 -0.041852999 0.041118
0.0537281 -0.037556101 0.0418442
0.0537281 -0.033259202 0.042375501
0.0537281 -0.0289624 0.042190701
0.0537281 -0.024665499 0.042316802
0.33302501 -0.162165 0.041158099
0.35021299 -0.17075901 0.039946601
0.34161901 -0.166462 0.041131899
0.337322 -0.162165 0.0432663
0.345916 -0.166462 0.042351902
0.35021299 -0.166462 0.043495402
0.31583801 -0.149275 0.0406067
0.32013401 -0.15357199 0.039625499
0.324431 -0.15357199 0.041513599
0.32872799 -0.157869 0.0416818
0.32872799 -0.15357199 0.043331701
0.32013401 -0.149275 0.042541299
0.42325899 -0.19224399 0.0424373
0.42325899 -0.18794701 0.040413301
0.42325899 -0.18365 0.039593499
0.42755601 -0.18365 0.0432547
0.42755601 -0.179353 0.0414607
0.393181 -0.110603 0.043136898
0.39747801 -0.119197 0.042725701
0.39747801 -0.1149 0.041484699
0.401775 -0.119197 0.0404763
0.39747801 -0.110603 0.040459801
0.375994 -0.093415499 0.043341201
0.384588 -0.097712398 0.0436267
0.38029099 -0.093415499 0.0423836
0.384588 -0.093415499 0.042185999
0.393181 -0.106306 0.042315599
0.38888401 -0.102009 0.0435565
0.393181 -0.102009 0.041356001
0.39747801 -0.106306 0.039722901
0.38888401 -0.097712398 0.0423632
0.393181 -0.097712398 0.0402418
0.38888401 -0.093415499 0.040964101
0.375994 -0.0891186 0.041355599
0.37169701 -0.084821798 0.041620798
0.375994 -0.084821798 0.040105499
0.38029099 -0.0891186 0.040828601
0.384588 -0.0891186 0.0402648
0.37169701 -0.080524899 0.0397764
0.44474399 -0.119197 0.040591002
0.44904101 -0.110603 0.041499101
0.45333701 -0.102009 0.041491602
0.37169701 -0.0504467 0.041827999
0.375994 -0.037556101 0.043440402
0.418962 0.026897 0.042344101
0.43615001 0.018303299 0.040131502
0.42755601 0.022600099 0.0416734
0.42325899 0.026897 0.039475601
0.41036901 0.031193901 0.040210798
0.414666 0.031193901 0.0394633
0.45333701 -0.0074780001 0.042428698
0.44904101 0.00111574 0.042329799
0.44474399 0.00970951 0.039756201
0.440447 0.0140064 0.0406016
-0.46189699 0.17299099 0.043717898
-0.46189699 0.177288 0.042837299
-0.45330301 0.164397 0.043288302
-0.44900599 0.164397 0.042976599
-0.444709 0.164397 0.041985601
-0.440413 0.164397 0.039623
-0.43611601 0.168694 0.0432752
-0.43181899 0.168694 0.0419911
-0.427522 0.168694 0.040885299
-0.42322499 0.168694 0.040709101
-0.40603799 0.164397 0.043326799
-0.418928 0.168694 0.042758498
-0.45330301 0.185881 0.0396384
-0.44900599 0.19017801 0.041297499
-0.444709 0.194475 0.0416773
-0.440413 0.198772 0.0406662
-0.43611601 0.203069 0.040735599
-0.43181899 0.207366 0.040925901
-0.427522 0.21166299 0.040113799
-0.40603799 0.207366 0.043430999
-0.418928 0.215959 0.039649799
-0.41463101 0.215959 0.043735601
-0.41033399 0.21166299 0.0435168
-0.401741 0.203069 0.0422084
-0.39744401 0.203069 0.042767499
-0.39314699 0.203069 0.042654201
-0.38885 0.203069 0.040258799
-0.25994399 0.0827564 0.0401005
-0.25134999 0.087053202 0.042673901
-0.380256 0.207366 0.043010499
-0.37595901 0.207366 0.042155702
-0.37166199 0.207366 0.041318499
-0.36736599 0.207366 0.040459499
-0.29002199 0.164397 0.040089399
-0.28142801 0.168694 0.0421395
-0.272834 0.17299099 0.043405101
-0.268538 0.17299099 0.0397361
-0.40603799 0.2976 0.040535901
-0.40603799 0.30189699 0.0431787
-0.401741 0.2976 0.0411437
-0.39744401 0.2976 0.040281199
-0.39314699 0.30189699 0.043353699
-0.38885 0.30189699 0.040495101
-0.41033399 0.30619401 0.041210301
-0.41033399 0.310491 0.0436766
-0.41463101 0.31478801 0.041315999
-0.418928 0.319085 0.040490098
-0.42322499 0.32338101 0.041402798
-0.427522 0.32767799 0.040074199
-0.42322499 0.32767799 0.043713599
-0.427522 0.33197501 0.041352302
-0.427522 0.336272 0.040880602
-0.41463101 0.34486601 0.041124199
-0.41033399 0.34486601 0.039873801
-0.40603799 0.34486601 0.040188901
-0.401741 0.34486601 0.040831499
-0.39744401 0.34486601 0.040769901
-0.32869399 0.280413 0.043536201
-0.25994399 0.220256 0.0396179
-0.255647 0.220256 0.0402615
-0.25134999 0.220256 0.040773202
-0.37166199 0.30189699 0.040219299
-0.35447499 0.29330301 0.040007301
-0.363069 0.2976 0.0397068
-0.324397 0.32338101 0.039812401
-0.332991 0.33197501 0.0401446
-0.31580299 0.319085 0.040632401
-0.30291301 0.31478801 0.041382
-0.294319 0.310491 0.041638199
-0.29002199 0.310491 0.040377598
-0.285725 0.310491 0.039879601
-0.28142801 0.310491 0.0412574
-0.28142801 0.31478801 0.039740499
-0.27713099 0.31478801 0.0431448
-0.28142801 0.319085 0.040142398
-0.28142801 0.32338101 0.0415885
-0.28142801 0.32767799 0.041307598
-0.27713099 0.336272 0.0403281
-0.247053 0.091350101 0.041067999
-0.24275599 0.091350101 0.043500401
-0.23845901 0.095647 0.0406623
-0.234163 0.095647 0.0426112
-0.229866 0.099943899 0.0401031
-0.22556899 0.099943899 0.041928999
-0.22127201 0.099943899 0.0434517
-0.22127201 0.104241 0.039963201
-0.216975 0.104241 0.041547999
-0.212678 0.104241 0.042922799
-0.212678 0.108538 0.039953999
-0.208381 0.108538 0.041470502
-0.14822499 0.164397 0.042773601
-0.12674101 0.168694 0.039778601
-0.12674101 0.17299099 0.042223301
-0.12674101 0.177288 0.043225899
-0.122444 0.177288 0.040736601
-0.122444 0.181584 0.0422622
-0.118147 0.181584 0.0406278
-0.122444 0.185881 0.042977199
-0.122444 0.19017801 0.042676002
-0.118147 0.185881 0.040089399
-0.122444 0.194475 0.041504402
-0.12674101 0.198772 0.043121502
-0.122444 0.198772 0.040111199
-0.131038 0.207366 0.042458098
-0.131038 0.21166299 0.041622899
-0.135334 0.215959 0.042926699
-0.131038 0.215959 0.041141599
-0.12674101 0.203069 0.0412669
-0.12674101 0.207366 0.040074799
-0.12674101 0.21166299 0.039807301
-0.12674101 0.215959 0.040065601
-0.247053 0.220256 0.040513001
-0.24275599 0.220256 0.0414134
-0.191194 0.241741 0.042050999
-0.18689699 0.246038 0.040149901
-0.18260001 0.246038 0.041978601
-0.18689699 0.25033501 0.0415182
-0.216975 0.25463101 0.043392502
-0.212678 0.25463101 0.041843802
-0.208381 0.25463101 0.040063702
-0.135334 0.241741 0.042854801
-0.135334 0.246038 0.042089801
-0.131038 0.241741 0.0401625
-0.135334 0.25033501 0.041569699
-0.135334 0.25463101 0.041155402
-0.131038 0.25463101 0.040023699
-0.135334 0.258928 0.042587001
-0.131038 0.258928 0.041765001
-0.131038 0.26322499 0.0436645
-0.12674101 0.25463101 0.039769199
-0.122444 0.25463101 0.039755601
-0.12674101 0.258928 0.041934099
-0.122444 0.258928 0.041171901
-0.118147 0.25463101 0.039939798
-0.11385 0.25463101 0.039923999
-0.118147 0.258928 0.040425599
-0.11385 0.258928 0.0399643
-0.12674101 0.26322499 0.042973898
-0.122444 0.26322499 0.041950502
-0.12674101 0.26752201 0.0436108
-0.122444 0.26752201 0.041623101
-0.118147 0.26322499 0.040185701
-0.131038 0.27611601 0.043446101
-0.131038 0.280413 0.0425951
-0.135334 0.28470999 0.0436785
-0.131038 0.28470999 0.0419605
-0.12674101 0.271819 0.042227801
-0.122444 0.271819 0.039798599
-0.12674101 0.27611601 0.040529702
-0.12674101 0.280413 0.040056199
-0.12674101 0.28470999 0.0403466
-0.216975 0.34056899 0.041147701
-0.191194 0.336272 0.0412657
-0.18689699 0.33197501 0.043070499
-0.18260001 0.33197501 0.041222099
-0.212678 0.34056899 0.041975699
-0.208381 0.34056899 0.0421311
-0.20408399 0.34056899 0.041997701
-0.199788 0.34056899 0.040430401
-0.139631 0.310491 0.0431609
-0.139631 0.31478801 0.043357901
-0.14392801 0.319085 0.043155599
-0.139631 0.319085 0.042600401
-0.135334 0.310491 0.0409896
-0.135334 0.31478801 0.041376501
-0.135334 0.319085 0.0410368
-0.178303 0.33197501 0.039857801
-0.169709 0.33197501 0.040237799
-0.16541301 0.33197501 0.042020898
-0.14822499 0.32338101 0.042530999
-0.14822499 0.32767799 0.0421554
-0.161116 0.33197501 0.043255001
-0.161116 0.336272 0.040160201
-0.156819 0.336272 0.042546
-0.152522 0.33197501 0.0436696
-0.14822499 0.33197501 0.0433788
-0.152522 0.336272 0.0432567
-0.14822499 0.336272 0.043152399
-0.152522 0.34056899 0.041567702
-0.14822499 0.34056899 0.042633399
-0.14822499 0.34486601 0.0399528
-0.14392801 0.32338101 0.040915299
-0.139631 0.32338101 0.040752999
-0.14392801 0.32767799 0.0399017
-0.14392801 0.33197501 0.041106299
-0.14392801 0.336272 0.042463001
-0.139631 0.336272 0.041774899
-0.14392801 0.34056899 0.0429161
-0.139631 0.34056899 0.042797599
-0.14392801 0.34486601 0.041763201
-0.139631 0.34486601 0.041882899
-0.135334 0.34486601 0.041441299
-0.139631 0.349163 0.040562801
-0.135334 0.349163 0.042661399
-0.131038 0.349163 0.0428528
-0.135334 0.35346001 0.039879899
-0.131038 0.35346001 0.041925799
-0.12674101 0.349163 0.0395036
-0.12674101 0.35346001 0.042009801
-0.122444 0.35346001 0.040762201
-0.363069 0.35775599 0.040743999
-0.12674101 0.35775599 0.0414823
-0.122444 0.35775599 0.042819198
-0.118147 0.35775599 0.039836001
-0.285725 -0.26570699 0.0437463
-0.28710899 -0.26528999 0.0437463
-0.27713099 -0.26719701 0.0437463
-0.268538 -0.26800001 0.0437463
-0.25994399 -0.26971701 0.0437463
-0.32010001 -0.246012 0.0437463
-0.32673299 -0.239509 0.0437463
-0.32869399 -0.23759501 0.0437463
-0.336133 -0.23091599 0.0437463
-0.35902801 -0.196541 0.0437463
-0.33728799 -0.22989801 0.0437463
-0.34379801 -0.222322 0.0437463
-0.34588099 -0.218859 0.0437463
-0.30291301 -0.25748399 0.0437463
-0.30456901 -0.256697 0.0437463
-0.311506 -0.25263199 0.0437463
-0.31769899 -0.24810299 0.0437463
-0.294319 -0.262196 0.0437463
-0.21243 -0.26528999 0.0437463
-0.208381 -0.264615 0.0437463
-0.199788 -0.26368099 0.0437463
-0.191194 -0.26314101 0.0437463
-0.18260001 -0.26253599 0.0437463
-0.174006 -0.26184499 0.0437463
-0.16541301 -0.260701 0.0437463
-0.156819 -0.25995699 0.0437463
-0.14822499 -0.25980699 0.0437463
-0.139631 -0.25991601 0.0437463
-0.131038 -0.26122701 0.0437463
-0.122444 -0.26436999 0.0437463
-0.362286 -0.18794701 0.0437463
-0.363069 -0.184287 0.0437463
-0.36422399 -0.179353 0.0437463
-0.36795399 -0.17075901 0.0437463
-0.37159199 -0.162165 0.0437463
-0.37166199 -0.16190299 0.0437463
-0.37270999 -0.15357199 0.0437463
-0.372365 -0.144978 0.0437463
-0.37252 -0.136384 0.0437463
-0.374347 -0.127791 0.0437463
-0.375671 -0.119197 0.0437463
-0.37456799 -0.110603 0.0437463
-0.37294501 -0.102009 0.0437463
-0.37270701 -0.093415499 0.0437463
-0.37298501 -0.084821798 0.0437463
-0.37166199 -0.0775932 0.0437463
-0.37120801 -0.076228 0.0437463
-0.348995 -0.0160717 0.0437463
-0.34601101 -0.0074780001 0.0437463
-0.34588099 -0.0072064102 0.0437463
-0.340139 0.00111574 0.0437463
-0.33728799 0.0045928098 0.0437463
-0.33375499 0.00970951 0.0437463
-0.32889599 0.018303299 0.0437463
-0.32869399 0.0187221 0.0437463
-0.32261601 0.026897 0.0437463
-0.32010001 0.029375499 0.0437463
-0.31400901 0.0354908 0.0437463
-0.30291301 0.048170999 0.0437463
-0.29749399 0.052678201 0.0437463
-0.294319 0.054953299 0.0437463
-0.286771 0.061271999 0.0437463
-0.285725 0.062291 0.0437463
-0.27755401 0.0698658 0.0437463
-0.27713099 0.070183702 0.0437463
-0.14822499 -0.071776003 0.0437463
-0.139631 -0.073451802 0.0437463
-0.131038 -0.074785098 0.0437463
-0.122444 -0.075081401 0.0437463
-0.11385 -0.073627502 0.0437463
0.0135119 -0.179353 0.0437463
0.0150562 -0.17606001 0.0437463
0.017410999 -0.17075901 0.0437463
-0.078766003 -0.059040502 0.0437463
-0.179957 -0.024665499 0.0437463
-0.16541301 0.0324849 0.0437463
-0.164298 0.0354908 0.0437463
-0.16092201 0.044084501 0.0437463
-0.070881203 -0.053432301 0.0437463
-0.036506299 -0.021616399 0.0437463
-0.032753099 -0.0160717 0.0437463
0.0195578 0.0354908 0.0437463
0.02365 0.037700001 0.0437463
0.239924 -0.239509 0.0437463
0.247087 -0.23372699 0.0437463
0.24979299 -0.23091599 0.0437463
0.29865 -0.26293799 0.0437463
0.25568101 -0.226475 0.0437463
0.26077899 -0.222322 0.0437463
0.26427501 -0.219587 0.0437463
0.270228 -0.213728 0.0437463
0.27286899 -0.210494 0.0437463
0.27675 -0.205134 0.0437463
0.308514 -0.26528999 0.0437463
0.35880601 -0.27000901 0.0437463
0.36739999 -0.26654899 0.0437463
0.37069401 -0.26528999 0.0437463
0.307244 -0.264963 0.0437463
0.41775501 -0.213728 0.0437463
0.418962 -0.208289 0.0437463
0.025979901 -0.144978 0.0437463
0.028991999 -0.136384 0.0437463
0.031903099 -0.127791 0.0437463
0.124548 -0.179353 0.0437463
0.124378 -0.17075901 0.0437463
0.125559 -0.162165 0.0437463
0.126775 -0.15662 0.0437463
0.149434 -0.127791 0.0437463
0.032243699 -0.126609 0.0437463
0.034427099 -0.119197 0.0437463
0.0367967 -0.110603 0.0437463
0.152556 -0.126312 0.0437463
0.256522 -0.144978 0.0437463
0.247087 -0.141028 0.0437463
0.25568101 -0.144666 0.0437463
0.052138299 -0.0160717 0.0437463
0.052799601 -0.0074780001 0.0437463
0.052510001 0.00111574 0.0437463
0.051107701 0.00970951 0.0437463
0.0507988 0.018303299 0.0437463
0.0510787 0.026897 0.0437463
0.032243699 0.038639002 0.0437463
0.0408375 0.037576102 0.0437463
0.049431302 0.0322976 0.0437463
0.046625301 0.0354908 0.0437463
0.35880601 -0.16833 0.0437463
0.36739999 -0.168983 0.0437463
0.375994 -0.16871101 0.0437463
0.384588 -0.167724 0.0437463
0.393181 -0.164524 0.0437463
0.39488 -0.162165 0.0437463
0.43295801 -0.17075901 0.0437463
0.43532601 -0.162165 0.0437463
0.396952 -0.15357199 0.0437463
0.398424 -0.144978 0.0437463
0.399299 -0.136384 0.0437463
0.39831001 -0.127791 0.0437463
0.43615001 -0.15855899 0.0437463
0.43728301 -0.15357199 0.0437463
0.439318 -0.144978 0.0437463
0.44154701 -0.136384 0.0437463
0.44405699 -0.127791 0.0437463
0.44474399 -0.12541699 0.0437463
0.45486501 -0.102009 0.0437463
0.45797801 -0.093415499 0.0437463
0.459984 -0.084821798 0.0437463
0.461184 -0.076228 0.0437463
0.46193099 -0.0694554 0.0437463
0.46210399 -0.067634203 0.0437463
0.462762 -0.059040502 0.0437463
0.379812 -0.0160717 0.0437463
0.381098 -0.0074780001 0.0437463
0.383324 0.00111574 0.0437463
0.384588 0.0051464699 0.0437463
0.386765 0.00970951 0.0437463
0.39279401 0.018303299 0.0437463
0.393181 0.018768299 0.0437463
0.401775 0.0256564 0.0437463
0.40520799 0.026897 0.0437463
0.462832 -0.0504467 0.0437463
0.46224299 -0.041852999 0.0437463
0.46193099 -0.038770899 0.0437463
0.46113199 -0.033259202 0.0437463
0.45923501 -0.024665499 0.0437463
0.45333701 -0.0081217298 0.0437463
0.45648101 -0.0160717 0.0437463
-0.39744401 0.161733 0.0437463
-0.405747 0.164397 0.0437463
-0.38885 0.159329 0.0437463
-0.380256 0.15747499 0.0437463
-0.37166199 0.156122 0.0437463
-0.363069 0.15542801 0.0437463
-0.36888 0.15580299 0.0437463
-0.35447499 0.154909 0.0437463
-0.34588099 0.154516 0.0437463
-0.33728799 0.155278 0.0437463
-0.33421201 0.15580299 0.0437463
-0.32869399 0.156574 0.0437463
-0.32010001 0.157823 0.0437463
-0.34588099 0.21076 0.0437463
-0.33728799 0.211155 0.0437463
-0.32869399 0.211678 0.0437463
-0.32010001 0.212589 0.0437463
-0.311506 0.159547 0.0437463
-0.30291301 0.16203 0.0437463
-0.311506 0.213691 0.0437463
-0.30291301 0.2148 0.0437463
-0.29517001 0.215959 0.0437463
-0.294319 0.216114 0.0437463
-0.285725 0.21709099 0.0437463
-0.27713099 0.217399 0.0437463
-0.285725 0.26737401 0.0437463
-0.286244 0.26752201 0.0437463
-0.30291301 0.27348599 0.0437463
-0.311499 0.27611601 0.0437463
-0.311506 0.276117 0.0437463
-0.294319 0.27017701 0.0437463
-0.27713099 0.26504299 0.0437463
-0.268538 0.26306 0.0437463
-0.25994399 0.26137 0.0437463
-0.25134999 0.259911 0.0437463
-0.25994399 0.33957699 0.0437463
-0.25134999 0.340583 0.0437463
-0.199788 0.109314 0.0437463
-0.192517 0.112835 0.0437463
-0.191194 0.113403 0.0437463
-0.18260001 0.116374 0.0437463
-0.152549 0.087053202 0.0437463
-0.152542 0.095647 0.0437463
-0.154644 0.104241 0.0437463
-0.156819 0.108204 0.0437463
-0.16124 0.112835 0.0437463
-0.174006 0.117577 0.0437463
-0.16541301 0.115559 0.0437463
-0.24275599 0.181499 0.0437463
-0.242217 0.181584 0.0437463
-0.24275599 0.258598 0.0437463
-0.245048 0.258928 0.0437463
-0.234163 0.25723201 0.0437463
-0.137604 0.224553 0.0437463
-0.136179 0.233147 0.0437463
-0.24275599 0.34021899 0.0437463
-0.139631 0.28981999 0.0437463
-0.14144 0.29330301 0.0437463
-0.141992 0.30189699 0.0437463
-0.32010001 -0.24810299 0.035647299
-0.33728799 -0.23091599 0.039905898
-0.32869399 -0.239509 0.037246801
-0.35447499 -0.205134 0.040369801
-0.216975 -0.26528999 0.0399675
-0.11385 -0.26528999 0.039701201
-0.363069 -0.18794701 0.0396749
-0.37166199 -0.162165 0.043479402
-0.37166199 -0.076228 0.0419829
-0.30291301 0.052678201 0.0362707
0.0150562 -0.179353 0.0421317
0.02365 -0.17075901 0.036194898
0.02365 -0.162165 0.0402271
0.02365 -0.15357199 0.043538898
-0.156819 0.044084501 0.039553002
-0.139631 0.078459501 0.035564002
-0.036506299 -0.0160717 0.041182201
0.02365 0.044084501 0.042520199
0.0064625102 0.052678201 0.036288999
0.0150562 0.052678201 0.039328799
0.02365 0.052678201 0.040584698
0.0150562 0.061271999 0.036731198
0.02365 0.061271999 0.038285401
0.02365 0.0698658 0.036072299
0.247087 -0.239509 0.0395898
0.25568101 -0.23091599 0.0413941
0.26427501 -0.23091599 0.035197299
0.26427501 -0.222322 0.042207099
0.27286899 -0.213728 0.0419266
0.28146201 -0.205134 0.038692299
0.307244 -0.26528999 0.042264301
0.032243699 -0.144978 0.035536502
0.032243699 -0.136384 0.039297
0.032243699 -0.127791 0.043285601
0.0408375 -0.119197 0.035305001
0.058024999 -0.0160717 0.039721299
0.058024999 -0.0074780001 0.0407594
0.058024999 0.00111574 0.041280098
0.058024999 0.00970951 0.041143999
0.066618703 0.00111574 0.036013499
0.066618703 0.00970951 0.036557399
0.058024999 0.018303299 0.041366398
0.058024999 0.026897 0.041829798
0.032243699 0.044084501 0.042759899
0.0408375 0.044084501 0.0427818
0.049431302 0.0354908 0.043415599
0.058024999 0.0354908 0.041639999
0.049431302 0.044084501 0.0424527
0.058024999 0.044084501 0.0408949
0.066618703 0.018303299 0.036910702
0.066618703 0.026897 0.0378244
0.066618703 0.0354908 0.038388401
0.066618703 0.044084501 0.0380533
0.032243699 0.052678201 0.0412274
0.0408375 0.052678201 0.041827898
0.032243699 0.061271999 0.039393999
0.0408375 0.061271999 0.0403996
0.049431302 0.052678201 0.041673601
0.058024999 0.052678201 0.040221199
0.049431302 0.061271999 0.040437002
0.058024999 0.061271999 0.039503399
0.032243699 0.0698658 0.037340999
0.0408375 0.0698658 0.038328201
0.032243699 0.078459501 0.0355887
0.0408375 0.078459501 0.0364995
0.049431302 0.0698658 0.038615
0.058024999 0.0698658 0.0384668
0.049431302 0.078459501 0.036922298
0.058024999 0.078459501 0.0373144
0.066618703 0.052678201 0.0378666
0.075212501 0.052678201 0.035321798
0.066618703 0.061271999 0.0380878
0.075212501 0.061271999 0.036011901
0.066618703 0.0698658 0.037867401
0.075212501 0.0698658 0.036317799
0.066618703 0.078459501 0.0370613
0.075212501 0.078459501 0.035800502
0.35880601 -0.17075901 0.041966598
0.36739999 -0.17075901 0.042442299
0.375994 -0.17075901 0.042104401
0.384588 -0.17075901 0.041637499
0.393181 -0.17075901 0.041722599
0.401775 -0.17075901 0.039579201
0.401775 -0.162165 0.0399829
0.41036901 -0.17075901 0.035979699
0.418962 -0.17075901 0.0353068
0.41036901 -0.162165 0.035162501
0.42755601 -0.17075901 0.0382788
0.42755601 -0.162165 0.036295101
0.401775 -0.15357199 0.040424399
0.401775 -0.144978 0.041585699
0.401775 -0.136384 0.0424782
0.401775 -0.127791 0.042146001
0.41036901 -0.144978 0.035925999
0.43615001 -0.15357199 0.0417712
0.43615001 -0.144978 0.038974099
0.41036901 -0.136384 0.037246801
0.41036901 -0.127791 0.037573501
0.43615001 -0.136384 0.036945399
0.41036901 -0.119197 0.0364439
0.45333701 -0.093415499 0.037023701
0.46193099 -0.067634203 0.0431858
0.46193099 -0.059040502 0.040442601
0.384588 0.00970951 0.0404112
0.393181 0.026897 0.037721299
0.401775 0.026897 0.042738199
0.401775 0.0354908 0.0355209
0.46193099 -0.0504467 0.039466999
0.46193099 -0.041852999 0.0420467
-0.37166199 0.15580299 0.0391929
-0.285725 0.26752201 0.042279098
-0.199788 0.112835 0.041748799
-0.199788 0.121428 0.0362413
-0.191194 0.121428 0.039436501
-0.18260001 0.121428 0.041631602
-0.18260001 0.130022 0.0376831
-0.14822499 0.087053202 0.0419112
-0.14822499 0.095647 0.0420449
-0.14822499 0.104241 0.041614302
-0.156819 0.112835 0.042888001
-0.14822499 0.112835 0.040313099
-0.139631 0.087053202 0.036803398
-0.139631 0.095647 0.037235901
-0.139631 0.104241 0.0373744
-0.139631 0.112835 0.0368516
-0.174006 0.121428 0.0425741
-0.16541301 0.121428 0.042380199
-0.174006 0.130022 0.039568301
-0.16541301 0.130022 0.0400903
-0.156819 0.121428 0.041073401
-0.14822499 0.121428 0.038646001
-0.156819 0.130022 0.0392153
-0.14822499 0.130022 0.037296802
-0.174006 0.138616 0.0361026
-0.16541301 0.138616 0.0372518
-0.156819 0.138616 0.037143901
-0.156819 0.14721 0.035314701
-0.139631 0.121428 0.035938501
-0.11385 0.207366 0.037887901
-0.11385 0.215959 0.0383236
-0.105256 0.207366 0.036566701
-0.105256 0.215959 0.036512699
-0.24275599 0.258928 0.041811001
-0.131038 0.224553 0.040821701
-0.131038 0.233147 0.0410395
-0.122444 0.224553 0.039130799
-0.11385 0.224553 0.037911501
-0.122444 0.233147 0.038294598
-0.11385 0.233147 0.037307799
-0.122444 0.241741 0.0374441
-0.11385 0.241741 0.036965601
-0.11385 0.28470999 0.0362809
-0.139631 0.29330301 0.043257199
-0.131038 0.29330301 0.041161101
-0.139631 0.30189699 0.042793602
-0.131038 0.30189699 0.039452501
-0.122444 0.29330301 0.039293699
-0.11385 0.29330301 0.037108399
-0.122444 0.30189699 0.0370223
-0.105256 0.224553 0.036593001
-0.105256 0.233147 0.036354501
-0.105256 0.241741 0.036442898
-0.096662499 0.241741 0.035349298
0.049431302 0.087053202 0.035508901
0.058024999 0.087053202 0.036293902
0.066618703 0.087053202 0.0362418
0.075212501 0.087053202 0.035275798
-0.25478801 -0.27097699 0.039449401
-0.35171899 -0.20918299 0.040808599
-0.221908 -0.26679799 0.040137298
-0.116517 -0.26590601 0.042734999
-0.108697 -0.26677901 0.0400992
-0.052463401 -0.266202 0.039449401
-0.0470897 -0.26285699 0.040958799
-0.369535 -0.070801198 0.0403262
-0.351803 -0.021228001 0.039449401
-0.309816 0.042329598 0.040881701
-0.27211899 0.076187603 0.039440598
-0.153905 -0.069118403 0.038846899
0.0127147 -0.185082 0.041333999
0.022784799 -0.157869 0.043000899
-0.10952 -0.071260303 0.038221799
-0.17819899 -0.030394601 0.039558701
-0.177931 -0.018936301 0.0397898
-0.163066 0.0306929 0.0396953
-0.153716 0.049813699 0.038358498
-0.14772201 0.0588797 0.035712499
-0.14667299 0.065568902 0.037020002
-0.144949 0.073955797 0.037974101
-0.0767892 -0.054636199 0.039699301
-0.0685739 -0.0511932 0.042786799
-0.072132297 -0.0492911 0.037514102
-0.041954 -0.021023899 0.039758801
-0.032577898 -0.0102277 0.041399699
-0.037298199 -0.0047971299 0.036015201
-0.019988401 0.020470399 0.035558298
-0.0142542 0.021829501 0.038379099
-0.0120483 0.031193901 0.036217701
0.018671099 0.039439701 0.042681199
0.0021776599 0.047715299 0.036093801
0.0103168 0.0469491 0.0392203
0.241597 -0.24128699 0.0394728
0.29349399 -0.262649 0.039449401
0.240413 -0.224391 0.0402992
0.27787 -0.209502 0.039081302
0.283898 -0.199405 0.038256001
0.312289 -0.26826599 0.0387371
0.35365 -0.27085501 0.039449401
0.37466899 -0.26438701 0.0405421
0.416435 -0.21888401 0.039449401
0.41763499 -0.208525 0.039905101
0.127101 -0.18723799 0.038077399
0.127046 -0.154236 0.039449401
0.146268 -0.13060001 0.038051601
0.041625101 -0.1149 0.035888299
0.039829899 -0.10667 0.041208699
0.158081 -0.12482 0.0390319
0.29017299 -0.17992499 0.038070802
0.26245299 -0.145825 0.039449401
0.24015 -0.133921 0.037831198
0.21590699 -0.118402 0.0359364
0.059393201 -0.037556101 0.036600601
0.059518699 -0.0289624 0.0373329
0.055142902 -0.0218009 0.041320302
0.35307699 -0.173411 0.037917599
0.35365 -0.168493 0.042580299
0.414666 -0.175915 0.036016598
0.42351401 -0.176488 0.038334101
0.398996 -0.122634 0.042568199
0.40527499 -0.114248 0.037532602
0.44197801 -0.122541 0.039083999
0.450665 -0.098956503 0.036884502
0.45286301 -0.0911863 0.035620298
0.378297 -0.0210848 0.0387333
0.40717599 0.030775201 0.040213201
0.45361501 -0.0063077202 0.038045801
0.44517201 0.0103635 0.037792001
-0.40292701 0.16259301 0.039389499
-0.39369699 0.159879 0.038017198
-0.270688 0.079056099 0.036213599
-0.38455299 0.15791599 0.038589999
-0.35103801 0.20916501 0.039449401
-0.29775599 0.162618 0.039449401
-0.401618 0.293145 0.035318799
-0.271402 0.21902999 0.038950901
-0.316663 0.27717599 0.039449401
-0.336882 0.28495401 0.040998802
-0.26567301 0.34017301 0.038956299
-0.20551699 0.110035 0.0414549
-0.211374 0.114768 0.0360258
-0.15098201 0.081896998 0.042727999
-0.15164299 0.143168 0.035725798
-0.144841 0.135178 0.035785198
-0.247912 0.179785 0.039449401
-0.229866 0.18341599 0.0403088
-0.22127201 0.184071 0.0403088
-0.211962 0.184512 0.040165499
-0.119558 0.20162199 0.038837101
-0.119006 0.21166299 0.038764
-0.109553 0.20220999 0.036698598
-0.22900601 0.25704801 0.039449401
-0.13437 0.21939699 0.042476501
