# .PCD v0.7 - Point Cloud Data file format
VERSION 0.7
FIELDS x y z
SIZE 4 4 4
TYPE F F F
COUNT 1 1 1
WIDTH 1522
HEIGHT 1
VIEWPOINT 0 0 0 1 0 0 0
POINTS 1522
DATA ascii
-0.122444 0.17826299 -0.119535
-0.117723 0.181584 -0.119535
-0.16541301 0.192608 -0.119535
-0.169349 0.198772 -0.119535
-0.156819 0.18231501 -0.119535
-0.163381 0.19017801 -0.119535
-0.172664 0.207366 -0.119535
-0.174006 0.212299 -0.119535
-0.17496 0.215959 -0.119535
-0.11385 0.186207 -0.119535
0.02365 0.079762898 -0.119535
-0.110509 0.19017801 -0.119535
-0.105256 0.194427 -0.119535
-0.098949097 0.198772 -0.119535
-0.096662499 0.20122799 -0.119535
-0.092673801 0.207366 -0.119535
-0.089676499 0.215959 -0.119535
-0.18260001 0.243508 -0.119535
-0.18639 0.25033501 -0.119535
-0.189126 0.258928 -0.119535
-0.19017901 0.26752201 -0.119535
-0.191194 0.26970401 -0.119535
-0.19477101 0.27611601 -0.119535
-0.19701099 0.28470999 -0.119535
-0.17634401 0.224553 -0.119535
-0.17686599 0.233147 -0.119535
-0.18127 0.241741 -0.119535
-0.194695 0.29330301 -0.119535
-0.191194 0.29970101 -0.119535
-0.18998601 0.30189699 -0.119535
-0.199788 0.31714499 -0.119535
-0.207362 0.319085 -0.119535
-0.185651 0.310491 -0.119535
-0.191194 0.31750199 -0.119535
-0.206844 0.32767799 -0.119535
-0.199788 0.33584401 -0.119535
-0.199302 0.336272 -0.119535
-0.191194 0.34337199 -0.119535
-0.18927699 0.34486601 -0.119535
-0.18260001 0.349251 -0.119535
-0.122444 0.31768301 -0.119535
-0.12697899 0.319085 -0.119535
-0.11385 0.31200099 -0.119535
-0.14822499 0.32514501 -0.119535
-0.150111 0.32767799 -0.119535
-0.152266 0.336272 -0.119535
-0.174477 0.35346001 -0.119535
-0.153845 0.34486601 -0.119535
-0.156819 0.35093099 -0.119535
-0.159953 0.35346001 -0.119535
-0.139631 0.32183301 -0.119535
-0.131038 0.320059 -0.119535
-0.088483699 0.224553 -0.119535
-0.088751197 0.233147 -0.119535
-0.089667201 0.241741 -0.119535
-0.091052599 0.25033501 -0.119535
-0.092780501 0.258928 -0.119535
-0.094833001 0.26752201 -0.119535
-0.096662499 0.27435499 -0.119535
-0.097081602 0.27611601 -0.119535
-0.0999685 0.28470999 -0.119535
-0.103462 0.29330301 -0.119535
-0.105256 0.29795399 -0.119535
-0.107046 0.30189699 -0.119535
-0.112595 0.310491 -0.119535
-0.174006 0.35363799 -0.119535
-0.16541301 0.35498399 -0.119535
0.02365 0.40265799 -0.119535
0.0175435 0.405022 -0.119535
0.0217012 0.413616 -0.119535
0.02365 0.41453299 -0.119535
0.027408199 0.087053202 -0.119535
0.032002699 0.095647 -0.119535
0.032243699 0.096272603 -0.119535
0.034740798 0.104241 -0.119535
0.038274199 0.112835 -0.119535
0.0408375 0.117253 -0.119535
0.043513998 0.121428 -0.119535
0.049397901 0.130022 -0.119535
0.049431302 0.130072 -0.119535
0.0556258 0.138616 -0.119535
0.058024999 0.141629 -0.119535
0.062955998 0.14721 -0.119535
0.126775 0.084008798 -0.119535
0.130162 0.087053202 -0.119535
0.135369 0.091451198 -0.119535
0.140876 0.095647 -0.119535
0.14396299 0.097830698 -0.119535
0.152556 0.10389 -0.119535
0.15314101 0.104241 -0.119535
0.16114999 0.108283 -0.119535
0.066618703 0.15137 -0.119535
0.070199698 0.15580299 -0.119535
0.075212501 0.161143 -0.119535
0.078676201 0.164397 -0.119535
0.083806202 0.16916899 -0.119535
0.089070998 0.17299099 -0.119535
0.092399999 0.175228 -0.119535
0.100994 0.181128 -0.119535
0.1017 0.181584 -0.119535
0.109587 0.18752 -0.119535
0.112907 0.19017801 -0.119535
0.118181 0.193841 -0.119535
0.126775 0.198082 -0.119535
0.12839299 0.198772 -0.119535
0.135369 0.20146801 -0.119535
0.14396299 0.20434199 -0.119535
0.152556 0.206313 -0.119535
0.160005 0.207366 -0.119535
0.16114999 0.20756599 -0.119535
0.169744 0.111669 -0.119535
0.173392 0.112835 -0.119535
0.2299 0.0999244 -0.119535
0.22624999 0.104241 -0.119535
0.221306 0.109102 -0.119535
0.215204 0.112835 -0.119535
0.17833801 0.114313 -0.119535
0.186931 0.116416 -0.119535
0.19552501 0.116733 -0.119535
0.204119 0.11556 -0.119535
0.212712 0.11368 -0.119535
0.23849399 0.084761404 -0.119535
0.23761 0.087053202 -0.119535
0.23300201 0.095647 -0.119535
0.29865 0.13370501 -0.119535
0.29656801 0.138616 -0.119535
0.291356 0.14721 -0.119535
0.169744 0.20877799 -0.119535
0.17833801 0.208915 -0.119535
0.186931 0.20818 -0.119535
0.19552501 0.208286 -0.119535
0.204119 0.20905501 -0.119535
0.212712 0.208194 -0.119535
0.221306 0.20568299 -0.119535
0.21608201 0.207366 -0.119535
0.2299 0.201663 -0.119535
0.26427501 0.179911 -0.119535
0.26206601 0.181584 -0.119535
0.29005599 0.14928199 -0.119535
0.28666201 0.15580299 -0.119535
0.28169999 0.164397 -0.119535
0.27286899 0.172453 -0.119535
0.272183 0.17299099 -0.119535
0.28146201 0.16469 -0.119535
0.23849399 0.19697499 -0.119535
0.23537999 0.198772 -0.119535
0.247087 0.19054399 -0.119535
0.25568101 0.185082 -0.119535
0.247529 0.19017801 -0.119535
0.313301 0.087053202 -0.119535
0.31144401 0.095647 -0.119535
0.31017801 0.104241 -0.119535
0.30779099 0.112835 -0.119535
0.307244 0.113903 -0.119535
0.30289599 0.121428 -0.119535
0.29975799 0.130022 -0.119535
0.027703799 0.405022 -0.119535
0.032243699 0.41039699 -0.119535
0.036031701 0.413616 -0.119535
0.032243699 0.41835001 -0.119535
-0.363069 -0.239509 -0.122791
-0.33728799 -0.205134 -0.12591501
-0.294319 -0.23091599 -0.120084
-0.25134999 -0.23091599 -0.120594
-0.285725 -0.222322 -0.12687001
-0.294319 -0.196541 -0.120389
-0.285725 -0.196541 -0.121899
-0.27713099 -0.222322 -0.122189
-0.268538 -0.222322 -0.120906
-0.27713099 -0.213728 -0.127336
-0.268538 -0.213728 -0.12595899
-0.25994399 -0.222322 -0.123996
-0.25994399 -0.213728 -0.12741099
-0.27713099 -0.205134 -0.127211
-0.268538 -0.205134 -0.125893
-0.27713099 -0.196541 -0.121764
-0.268538 -0.196541 -0.121365
-0.25994399 -0.205134 -0.126553
-0.25134999 -0.205134 -0.128025
-0.25994399 -0.196541 -0.122043
-0.25134999 -0.196541 -0.123227
-0.14822499 -0.273884 -0.123542
-0.131038 -0.273884 -0.119835
-0.122444 -0.273884 -0.121213
-0.234163 -0.239509 -0.124807
-0.24275599 -0.23091599 -0.127886
-0.24275599 -0.196541 -0.124536
-0.234163 -0.196541 -0.12560999
-0.22556899 -0.196541 -0.12703
-0.096662499 -0.273884 -0.122486
-0.070881203 -0.24810299 -0.12006
-0.053693801 -0.222322 -0.124421
-0.0451 -0.205134 -0.124919
-0.25134999 -0.179353 -0.119713
-0.25134999 -0.17075901 -0.124432
-0.25994399 -0.162165 -0.123594
-0.25134999 -0.162165 -0.128103
-0.268538 -0.15357199 -0.121981
-0.268538 -0.144978 -0.125093
-0.25994399 -0.15357199 -0.12705401
-0.27713099 -0.136384 -0.122359
-0.268538 -0.136384 -0.12734
-0.27713099 -0.127791 -0.124302
-0.285725 -0.119197 -0.119793
-0.27713099 -0.119197 -0.124958
-0.27713099 -0.110603 -0.123921
-0.268538 -0.110603 -0.127526
-0.27713099 -0.102009 -0.121079
-0.268538 -0.102009 -0.124142
-0.268538 -0.093415499 -0.119662
-0.25994399 -0.102009 -0.125782
-0.25134999 -0.102009 -0.12543599
-0.25994399 -0.093415499 -0.120267
-0.24275599 -0.18794701 -0.121625
-0.234163 -0.18794701 -0.123868
-0.24275599 -0.179353 -0.123764
-0.234163 -0.179353 -0.127257
-0.22556899 -0.18794701 -0.12627199
-0.18260001 -0.15357199 -0.126794
-0.191194 -0.144978 -0.12671199
-0.18260001 -0.144978 -0.120006
-0.199788 -0.136384 -0.127005
-0.208381 -0.127791 -0.12656
-0.199788 -0.127791 -0.120594
-0.191194 -0.136384 -0.120357
-0.156819 -0.179353 -0.12702399
-0.16541301 -0.17075901 -0.126376
-0.174006 -0.162165 -0.12670299
-0.139631 -0.18794701 -0.122432
-0.122444 -0.18794701 -0.125742
-0.234163 -0.110603 -0.126653
-0.216975 -0.119197 -0.124815
-0.22556899 -0.110603 -0.122628
-0.24275599 -0.102009 -0.12318
-0.079475001 -0.17075901 -0.127931
-0.079475001 -0.162165 -0.12508801
-0.079475001 -0.15357199 -0.126646
-0.079475001 -0.144978 -0.127663
-0.079475001 -0.136384 -0.127046
-0.079475001 -0.127791 -0.124029
-0.0451 -0.136384 -0.127327
-0.0451 -0.127791 -0.125227
-0.036506299 -0.17075901 -0.121216
-0.036506299 -0.162165 -0.121796
-0.036506299 -0.15357199 -0.121205
-0.036506299 -0.144978 -0.120238
-0.036506299 -0.136384 -0.119565
-0.0451 -0.119197 -0.122963
-0.0451 -0.110603 -0.121491
-0.070881203 -0.102009 -0.120197
-0.062287498 -0.093415499 -0.124918
-0.0451 -0.102009 -0.120761
-0.053693801 -0.093415499 -0.127084
-0.0451 -0.093415499 -0.121206
-0.053693801 -0.084821798 -0.120875
-0.0451 -0.084821798 -0.119727
-0.0193188 -0.076228 -0.119849
-0.010725 -0.076228 -0.120474
-0.0193188 -0.067634203 -0.120764
-0.010725 -0.067634203 -0.121626
-0.0193188 -0.059040502 -0.120836
-0.010725 -0.059040502 -0.121887
-0.00213128 -0.076228 -0.120051
0.0064625102 -0.076228 -0.119535
-0.00213128 -0.067634203 -0.121223
0.0064625102 -0.067634203 -0.120836
-0.00213128 -0.059040502 -0.121833
0.0064625102 -0.059040502 -0.121983
0.0150562 -0.067634203 -0.120121
0.0150562 -0.059040502 -0.121759
0.02365 -0.059040502 -0.120243
-0.0193188 -0.0504467 -0.120358
-0.010725 -0.0504467 -0.12218
-0.0193188 -0.041852999 -0.120392
-0.010725 -0.041852999 -0.122769
-0.0193188 -0.033259202 -0.120489
-0.010725 -0.033259202 -0.12288
-0.0193188 -0.024665499 -0.119848
-0.010725 -0.024665499 -0.122387
-0.00213128 -0.0504467 -0.122882
0.0064625102 -0.0504467 -0.123396
-0.00213128 -0.041852999 -0.123829
0.0064625102 -0.041852999 -0.124543
0.0150562 -0.0504467 -0.123646
0.02365 -0.0504467 -0.122483
0.0150562 -0.041852999 -0.124843
0.02365 -0.041852999 -0.12396
-0.00213128 -0.033259202 -0.124075
0.0064625102 -0.033259202 -0.124943
-0.00213128 -0.024665499 -0.1238
0.0064625102 -0.024665499 -0.124785
0.0150562 -0.033259202 -0.124956
0.02365 -0.033259202 -0.124281
0.0150562 -0.024665499 -0.12510499
0.02365 -0.024665499 -0.124828
-0.010725 -0.0160717 -0.121713
-0.010725 -0.0074780001 -0.120872
-0.00213128 -0.0160717 -0.123426
0.0064625102 -0.0160717 -0.124883
-0.00213128 -0.0074780001 -0.123052
0.0064625102 -0.0074780001 -0.124935
0.0150562 -0.0160717 -0.125732
0.02365 -0.0160717 -0.12592
0.0150562 -0.0074780001 -0.12591401
0.02365 -0.0074780001 -0.126451
-0.00213128 0.00111574 -0.122056
0.0064625102 0.00111574 -0.124163
-0.00213128 0.00970951 -0.120576
0.0064625102 0.00970951 -0.123281
0.0150562 0.00111574 -0.12550201
0.02365 0.00111574 -0.126404
0.0150562 0.00970951 -0.125119
0.02365 0.00970951 -0.126314
-0.00213128 0.018303299 -0.119619
0.0064625102 0.018303299 -0.123007
0.0064625102 0.026897 -0.122393
0.0150562 0.018303299 -0.125331
0.02365 0.018303299 -0.12672199
0.0150562 0.026897 -0.124998
0.02365 0.026897 -0.12678701
0.0064625102 0.0354908 -0.120782
0.0150562 0.0354908 -0.123598
0.02365 0.0354908 -0.12585799
0.0150562 0.044084501 -0.122409
0.02365 0.044084501 -0.124946
0.0150562 0.052678201 -0.121541
0.02365 0.052678201 -0.124465
0.0150562 0.061271999 -0.119829
0.02365 0.061271999 -0.1233
0.02365 0.0698658 -0.121358
0.02365 0.078459501 -0.119714
0.2299 -0.213728 -0.122044
0.247087 -0.222322 -0.12574799
0.25568101 -0.222322 -0.121344
0.28146201 -0.222322 -0.12543499
0.29005599 -0.222322 -0.121481
0.29005599 -0.213728 -0.126811
0.29005599 -0.205134 -0.127096
0.29005599 -0.196541 -0.121663
0.16114999 -0.179353 -0.119896
0.16114999 -0.162165 -0.121544
0.16114999 -0.15357199 -0.121002
0.16114999 -0.144978 -0.121903
0.16114999 -0.136384 -0.122417
0.16114999 -0.127791 -0.122058
0.16114999 -0.119197 -0.121656
0.16114999 -0.110603 -0.121098
0.16114999 -0.102009 -0.119804
0.169744 -0.18794701 -0.120252
0.2299 -0.162165 -0.127452
0.169744 -0.15357199 -0.123647
0.17833801 -0.15357199 -0.12702
0.169744 -0.144978 -0.12444
0.17833801 -0.144978 -0.126054
0.186931 -0.144978 -0.12684
0.19552501 -0.144978 -0.12678801
0.169744 -0.136384 -0.125387
0.17833801 -0.136384 -0.127049
0.169744 -0.127791 -0.12541001
0.17833801 -0.127791 -0.127288
0.186931 -0.136384 -0.12780701
0.19552501 -0.136384 -0.12794299
0.204119 -0.15357199 -0.12810101
0.204119 -0.144978 -0.127004
0.204119 -0.136384 -0.12784199
0.212712 -0.127791 -0.12807
0.247087 -0.17075901 -0.127105
0.23849399 -0.162165 -0.12567499
0.247087 -0.162165 -0.124259
0.25568101 -0.17075901 -0.124135
0.26427501 -0.17075901 -0.121183
0.25568101 -0.162165 -0.123627
0.26427501 -0.162165 -0.121119
0.28146201 -0.18794701 -0.126894
0.27286899 -0.179353 -0.12568
0.247087 -0.15357199 -0.128016
0.25568101 -0.15357199 -0.12664799
0.26427501 -0.15357199 -0.123432
0.26427501 -0.144978 -0.12528101
0.26427501 -0.136384 -0.12560201
0.26427501 -0.127791 -0.12468
0.27286899 -0.144978 -0.119884
0.169744 -0.119197 -0.12534399
0.17833801 -0.119197 -0.127516
0.169744 -0.110603 -0.125351
0.17833801 -0.110603 -0.127887
0.169744 -0.102009 -0.124444
0.17833801 -0.102009 -0.1276
0.169744 -0.093415499 -0.122392
0.17833801 -0.093415499 -0.126414
0.212712 -0.119197 -0.12799799
0.221306 -0.110603 -0.127537
0.2299 -0.110603 -0.127408
0.221306 -0.102009 -0.12772
0.2299 -0.102009 -0.125836
0.2299 -0.093415499 -0.126386
0.169744 -0.084821798 -0.12014
0.17833801 -0.084821798 -0.124644
0.17833801 -0.076228 -0.122546
0.186931 -0.084821798 -0.127758
0.186931 -0.076228 -0.126426
0.17833801 -0.067634203 -0.119889
0.186931 -0.067634203 -0.124225
0.19552501 -0.067634203 -0.127075
0.186931 -0.059040502 -0.121325
0.19552501 -0.059040502 -0.12511399
0.2299 -0.084821798 -0.12807
0.204119 -0.059040502 -0.12782
0.26427501 -0.119197 -0.123088
0.25568101 -0.110603 -0.126155
0.26427501 -0.110603 -0.119859
0.23849399 -0.102009 -0.125008
0.247087 -0.102009 -0.124357
0.23849399 -0.093415499 -0.124038
0.247087 -0.093415499 -0.121125
0.25568101 -0.102009 -0.120674
0.23849399 -0.084821798 -0.12599599
0.247087 -0.084821798 -0.122211
0.23849399 -0.076228 -0.127537
0.247087 -0.076228 -0.124521
0.25568101 -0.076228 -0.119629
0.247087 -0.067634203 -0.125699
0.247087 -0.059040502 -0.126431
0.25568101 -0.067634203 -0.1219
0.25568101 -0.059040502 -0.123535
0.26427501 -0.059040502 -0.12014
0.032243699 -0.0504467 -0.120814
0.032243699 -0.041852999 -0.12263
0.0408375 -0.041852999 -0.120552
0.032243699 -0.033259202 -0.123653
0.0408375 -0.033259202 -0.122069
0.032243699 -0.024665499 -0.124724
0.0408375 -0.024665499 -0.123716
0.049431302 -0.024665499 -0.121234
0.032243699 -0.0160717 -0.126127
0.0408375 -0.0160717 -0.125451
0.032243699 -0.0074780001 -0.12704501
0.0408375 -0.0074780001 -0.126572
0.049431302 -0.0160717 -0.123533
0.058024999 -0.0160717 -0.120693
0.049431302 -0.0074780001 -0.12519699
0.058024999 -0.0074780001 -0.122887
0.032243699 0.00111574 -0.127156
0.0408375 0.00111574 -0.126825
0.032243699 0.00970951 -0.127379
0.0408375 0.00970951 -0.127436
0.049431302 0.00111574 -0.125825
0.058024999 0.00111574 -0.124184
0.049431302 0.00970951 -0.126881
0.058024999 0.00970951 -0.12584101
0.066618703 0.00111574 -0.120539
0.066618703 0.00970951 -0.123031
0.032243699 0.018303299 -0.12803
0.058024999 0.018303299 -0.12754899
0.032243699 0.0354908 -0.127616
0.032243699 0.044084501 -0.127086
0.066618703 0.018303299 -0.125333
0.075212501 0.018303299 -0.121679
0.066618703 0.026897 -0.126564
0.075212501 0.026897 -0.123955
0.083806202 0.026897 -0.12013
0.066618703 0.0354908 -0.127474
0.075212501 0.0354908 -0.12544701
0.075212501 0.044084501 -0.12703
0.083806202 0.0354908 -0.122568
0.083806202 0.044084501 -0.124859
0.092399999 0.044084501 -0.121109
0.032243699 0.052678201 -0.12662899
0.0408375 0.052678201 -0.127838
0.032243699 0.061271999 -0.12547
0.0408375 0.061271999 -0.12677801
0.032243699 0.0698658 -0.123799
0.0408375 0.0698658 -0.125654
0.032243699 0.078459501 -0.122578
0.0408375 0.078459501 -0.12519801
0.049431302 0.0698658 -0.127791
0.049431302 0.078459501 -0.127794
0.083806202 0.052678201 -0.12679601
0.092399999 0.052678201 -0.123931
0.083806202 0.061271999 -0.127867
0.092399999 0.061271999 -0.125727
0.092399999 0.0698658 -0.127358
0.100994 0.061271999 -0.122349
0.100994 0.0698658 -0.124983
0.109587 0.0698658 -0.121577
0.100994 0.078459501 -0.127299
0.109587 0.078459501 -0.124811
0.118181 0.078459501 -0.121021
0.19552501 -0.0504467 -0.122672
0.19552501 -0.041852999 -0.119575
0.204119 -0.0504467 -0.126247
0.204119 -0.041852999 -0.123689
0.212712 -0.041852999 -0.126513
0.204119 -0.033259202 -0.120707
0.212712 -0.033259202 -0.124322
0.212712 -0.024665499 -0.121695
0.221306 -0.033259202 -0.126838
0.221306 -0.024665499 -0.125112
0.2299 -0.024665499 -0.12711699
0.221306 -0.0160717 -0.12244
0.2299 -0.0160717 -0.12564
0.2299 -0.0074780001 -0.123312
0.2299 0.00111574 -0.120746
0.247087 -0.0504467 -0.127676
0.25568101 -0.0504467 -0.125329
0.26427501 -0.0504467 -0.12221
0.25568101 -0.041852999 -0.12703
0.26427501 -0.041852999 -0.124427
0.25568101 -0.033259202 -0.12762401
0.26427501 -0.033259202 -0.12569299
0.25568101 -0.024665499 -0.127524
0.26427501 -0.024665499 -0.125818
0.27286899 -0.041852999 -0.120642
0.27286899 -0.033259202 -0.122663
0.27286899 -0.024665499 -0.123934
0.28146201 -0.024665499 -0.121099
0.23849399 -0.0160717 -0.12751199
0.23849399 -0.0074780001 -0.126012
0.247087 -0.0074780001 -0.127379
0.25568101 -0.0160717 -0.127775
0.26427501 -0.0160717 -0.12650301
0.25568101 -0.0074780001 -0.127745
0.26427501 -0.0074780001 -0.127277
0.23849399 0.00111574 -0.12393
0.247087 0.00111574 -0.12580299
0.23849399 0.00970951 -0.122177
0.247087 0.00970951 -0.124832
0.25568101 0.00111574 -0.126987
0.26427501 0.00111574 -0.12721799
0.25568101 0.00970951 -0.12633599
0.26427501 0.00970951 -0.126619
0.27286899 -0.0160717 -0.124989
0.28146201 -0.0160717 -0.122614
0.27286899 -0.0074780001 -0.12609801
0.28146201 -0.0074780001 -0.123749
0.29005599 -0.0074780001 -0.120653
0.27286899 0.00111574 -0.126523
0.28146201 0.00111574 -0.124781
0.27286899 0.00970951 -0.126128
0.28146201 0.00970951 -0.125311
0.29005599 0.00111574 -0.122144
0.29005599 0.00970951 -0.123584
0.29865 0.00970951 -0.120445
0.23849399 0.018303299 -0.120406
0.247087 0.018303299 -0.124051
0.247087 0.026897 -0.122708
0.25568101 0.018303299 -0.126068
0.26427501 0.018303299 -0.126545
0.25568101 0.026897 -0.125383
0.26427501 0.026897 -0.126546
0.247087 0.0354908 -0.121669
0.247087 0.044084501 -0.121378
0.25568101 0.0354908 -0.124594
0.26427501 0.0354908 -0.126251
0.25568101 0.044084501 -0.124569
0.26427501 0.044084501 -0.126416
0.27286899 0.018303299 -0.126261
0.28146201 0.018303299 -0.125646
0.27286899 0.026897 -0.12677
0.28146201 0.026897 -0.126184
0.29005599 0.018303299 -0.124073
0.29865 0.018303299 -0.121496
0.29005599 0.026897 -0.124339
0.29865 0.026897 -0.121881
0.27286899 0.0354908 -0.126901
0.28146201 0.0354908 -0.126544
0.27286899 0.044084501 -0.12716299
0.28146201 0.044084501 -0.126817
0.29005599 0.0354908 -0.12503
0.29865 0.0354908 -0.122696
0.29005599 0.044084501 -0.125644
0.29865 0.044084501 -0.123852
0.247087 0.052678201 -0.121485
0.247087 0.061271999 -0.121779
0.25568101 0.052678201 -0.125001
0.26427501 0.052678201 -0.126785
0.25568101 0.061271999 -0.125524
0.26427501 0.061271999 -0.127004
0.247087 0.0698658 -0.122096
0.247087 0.078459501 -0.122686
0.25568101 0.0698658 -0.125937
0.26427501 0.0698658 -0.12740999
0.25568101 0.078459501 -0.126156
0.26427501 0.078459501 -0.12791499
0.27286899 0.052678201 -0.12753101
0.28146201 0.052678201 -0.127214
0.27286899 0.061271999 -0.127468
0.28146201 0.061271999 -0.12728301
0.29005599 0.052678201 -0.125843
0.29865 0.052678201 -0.124215
0.29005599 0.061271999 -0.12564901
0.29865 0.061271999 -0.12363
0.27286899 0.0698658 -0.12764899
0.28146201 0.0698658 -0.12734
0.28146201 0.078459501 -0.12762301
0.29005599 0.0698658 -0.12584899
0.29865 0.0698658 -0.123876
0.29005599 0.078459501 -0.12624501
0.29865 0.078459501 -0.124373
0.307244 0.0354908 -0.120024
0.307244 0.044084501 -0.121094
0.307244 0.052678201 -0.121791
0.307244 0.061271999 -0.121618
0.307244 0.0698658 -0.121706
0.307244 0.078459501 -0.122082
-0.14822499 0.181584 -0.124099
-0.16541301 0.198772 -0.123044
-0.156819 0.19017801 -0.125
-0.16541301 0.207366 -0.12602299
-0.174006 0.215959 -0.120493
-0.096662499 0.198772 -0.12521
-0.088068798 0.207366 -0.124199
-0.088068798 0.215959 -0.123665
-0.18260001 0.25033501 -0.123415
-0.18260001 0.258928 -0.12285
-0.18260001 0.26752201 -0.12302
-0.191194 0.27611601 -0.121339
-0.18260001 0.27611601 -0.12625401
-0.191194 0.28470999 -0.123689
-0.174006 0.224553 -0.121962
-0.174006 0.233147 -0.122434
-0.174006 0.241741 -0.126633
-0.174006 0.258928 -0.12710799
-0.191194 0.29330301 -0.122332
-0.18260001 0.30189699 -0.125798
-0.199788 0.319085 -0.121902
-0.18260001 0.310491 -0.12061
-0.191194 0.319085 -0.120507
-0.18260001 0.319085 -0.121011
-0.199788 0.32767799 -0.12765899
-0.18260001 0.32767799 -0.124379
-0.174006 0.310491 -0.127661
-0.174006 0.319085 -0.123565
-0.122444 0.319085 -0.122261
-0.174006 0.32767799 -0.12418
-0.16541301 0.32767799 -0.127995
-0.156819 0.35346001 -0.120964
-0.088068798 0.224553 -0.120541
-0.088068798 0.233147 -0.121212
-0.088068798 0.241741 -0.123127
-0.088068798 0.25033501 -0.124896
-0.088068798 0.258928 -0.12662099
-0.088068798 0.26752201 -0.12798101
-0.096662499 0.27611601 -0.120099
-0.096662499 0.28470999 -0.123389
-0.096662499 0.29330301 -0.126957
-0.105256 0.30189699 -0.121486
-0.105256 0.310491 -0.12617201
0.02365 0.405022 -0.123571
0.02365 0.413616 -0.122156
0.032243699 0.087053202 -0.121184
0.0408375 0.087053202 -0.124318
0.032243699 0.095647 -0.119623
0.0408375 0.095647 -0.122947
0.049431302 0.087053202 -0.127212
0.049431302 0.095647 -0.126185
0.0408375 0.104241 -0.122194
0.0408375 0.112835 -0.120779
0.049431302 0.104241 -0.125468
0.058024999 0.104241 -0.127588
0.049431302 0.112835 -0.124136
0.058024999 0.112835 -0.126517
0.049431302 0.121428 -0.121863
0.058024999 0.121428 -0.124532
0.049431302 0.130022 -0.119548
0.058024999 0.130022 -0.122763
0.058024999 0.138616 -0.120568
0.066618703 0.121428 -0.127151
0.066618703 0.130022 -0.125756
0.075212501 0.130022 -0.12794501
0.066618703 0.138616 -0.124145
0.075212501 0.138616 -0.12671
0.066618703 0.14721 -0.121204
0.075212501 0.14721 -0.124139
0.083806202 0.14721 -0.12655701
0.109587 0.087053202 -0.12715399
0.118181 0.087053202 -0.124449
0.126775 0.087053202 -0.121058
0.118181 0.095647 -0.12742101
0.126775 0.095647 -0.12523399
0.126775 0.104241 -0.128078
0.135369 0.095647 -0.122052
0.135369 0.104241 -0.12592
0.14396299 0.104241 -0.122923
0.14396299 0.112835 -0.126369
0.152556 0.104241 -0.119747
0.152556 0.112835 -0.124389
0.16114999 0.112835 -0.122364
0.152556 0.121428 -0.12762301
0.16114999 0.121428 -0.12623399
0.075212501 0.15580299 -0.121208
0.083806202 0.15580299 -0.124091
0.092399999 0.15580299 -0.12696999
0.083806202 0.164397 -0.121479
0.092399999 0.164397 -0.124772
0.092399999 0.17299099 -0.120855
0.100994 0.164397 -0.12709101
0.100994 0.17299099 -0.123562
0.109587 0.17299099 -0.126086
0.109587 0.181584 -0.122214
0.118181 0.181584 -0.12535501
0.126775 0.181584 -0.127332
0.118181 0.19017801 -0.121595
0.126775 0.19017801 -0.12408
0.135369 0.19017801 -0.125861
0.14396299 0.19017801 -0.127569
0.135369 0.198772 -0.121224
0.14396299 0.198772 -0.123164
0.152556 0.198772 -0.124064
0.16114999 0.198772 -0.124884
0.16114999 0.207366 -0.119684
0.169744 0.112835 -0.120318
0.2299 0.104241 -0.121169
0.221306 0.112835 -0.121041
0.2299 0.112835 -0.123888
0.169744 0.121428 -0.124771
0.17833801 0.121428 -0.12314
0.169744 0.130022 -0.127498
0.17833801 0.130022 -0.126559
0.186931 0.121428 -0.121898
0.19552501 0.121428 -0.121871
0.186931 0.130022 -0.125697
0.19552501 0.130022 -0.12581401
0.204119 0.121428 -0.122739
0.212712 0.121428 -0.123497
0.204119 0.130022 -0.12632699
0.212712 0.130022 -0.126564
0.221306 0.121428 -0.124284
0.2299 0.121428 -0.126094
0.221306 0.130022 -0.127184
0.23849399 0.087053202 -0.119997
0.247087 0.087053202 -0.123426
0.23849399 0.095647 -0.121981
0.247087 0.095647 -0.124513
0.25568101 0.087053202 -0.126104
0.26427501 0.087053202 -0.127938
0.25568101 0.095647 -0.12645499
0.26427501 0.095647 -0.127698
0.23849399 0.104241 -0.1243
0.247087 0.104241 -0.125967
0.23849399 0.112835 -0.12623601
0.247087 0.112835 -0.12696899
0.25568101 0.104241 -0.127241
0.26427501 0.104241 -0.127808
0.25568101 0.112835 -0.127584
0.26427501 0.112835 -0.127817
0.27286899 0.087053202 -0.12805399
0.28146201 0.087053202 -0.127381
0.27286899 0.095647 -0.12753101
0.28146201 0.095647 -0.12672
0.29005599 0.087053202 -0.12604
0.29865 0.087053202 -0.123892
0.29005599 0.095647 -0.125392
0.29865 0.095647 -0.123159
0.27286899 0.104241 -0.127307
0.28146201 0.104241 -0.126527
0.27286899 0.112835 -0.12689599
0.28146201 0.112835 -0.12612399
0.29005599 0.104241 -0.12514099
0.29865 0.104241 -0.122874
0.29005599 0.112835 -0.124849
0.29865 0.112835 -0.122335
0.23849399 0.121428 -0.127514
0.247087 0.121428 -0.127655
0.25568101 0.121428 -0.12776101
0.26427501 0.121428 -0.127417
0.26427501 0.130022 -0.127244
0.26427501 0.138616 -0.12748601
0.26427501 0.14721 -0.12727401
0.27286899 0.121428 -0.12636399
0.28146201 0.121428 -0.125659
0.27286899 0.130022 -0.126068
0.28146201 0.130022 -0.125484
0.29005599 0.121428 -0.124181
0.29865 0.121428 -0.121102
0.29005599 0.130022 -0.123686
0.29865 0.130022 -0.120005
0.27286899 0.138616 -0.125644
0.28146201 0.138616 -0.124546
0.27286899 0.14721 -0.125009
0.28146201 0.14721 -0.123023
0.29005599 0.138616 -0.12239
0.29005599 0.14721 -0.12011
0.2299 0.181584 -0.128084
0.169744 0.198772 -0.126173
0.17833801 0.198772 -0.12627199
0.186931 0.198772 -0.126195
0.19552501 0.198772 -0.12623601
0.169744 0.207366 -0.120624
0.17833801 0.207366 -0.120687
0.186931 0.207366 -0.120163
0.19552501 0.207366 -0.120194
0.204119 0.198772 -0.12585799
0.212712 0.198772 -0.125121
0.221306 0.19017801 -0.127324
0.2299 0.19017801 -0.12584899
0.221306 0.198772 -0.123802
0.2299 0.198772 -0.121497
0.204119 0.207366 -0.12065
0.212712 0.207366 -0.12013
0.247087 0.164397 -0.128004
0.25568101 0.15580299 -0.127777
0.26427501 0.15580299 -0.125925
0.25568101 0.164397 -0.126341
0.26427501 0.164397 -0.123772
0.23849399 0.17299099 -0.127536
0.247087 0.17299099 -0.126277
0.23849399 0.181584 -0.125865
0.247087 0.181584 -0.123211
0.25568101 0.17299099 -0.124186
0.26427501 0.17299099 -0.121554
0.25568101 0.181584 -0.121082
0.27286899 0.15580299 -0.12381
0.28146201 0.15580299 -0.12154
0.27286899 0.164397 -0.121784
0.28146201 0.164397 -0.119613
0.23849399 0.19017801 -0.122837
0.247087 0.19017801 -0.119678
0.307244 0.087053202 -0.121635
0.307244 0.095647 -0.12084
0.307244 0.104241 -0.120453
0.307244 0.112835 -0.119697
0.032243699 0.413616 -0.122398
0.20817199 -0.13128801 -0.128071
0.21768001 -0.115885 -0.12800799
-0.363069 -0.24000999 -0.110941
-0.36365601 -0.239509 -0.110941
-0.35447499 -0.244854 -0.110941
-0.366923 -0.23091599 -0.110941
-0.34588099 -0.246548 -0.110941
-0.33728799 -0.246163 -0.110941
-0.32869399 -0.244517 -0.110941
-0.32010001 -0.242348 -0.110941
-0.36743599 -0.222322 -0.110941
-0.36772901 -0.213728 -0.110941
-0.363069 -0.205816 -0.110941
-0.36197001 -0.205134 -0.110941
-0.35447499 -0.203063 -0.110941
-0.34588099 -0.203205 -0.110941
-0.33728799 -0.203246 -0.110941
-0.32869399 -0.200756 -0.110941
-0.32010001 -0.19789 -0.110941
-0.311506 -0.239968 -0.110941
-0.31000301 -0.239509 -0.110941
-0.30291301 -0.236919 -0.110941
-0.294319 -0.233178 -0.110941
-0.28829801 -0.23091599 -0.110941
-0.25134999 -0.233822 -0.110941
-0.25817999 -0.23091599 -0.110941
-0.285725 -0.230125 -0.110941
-0.312989 -0.196541 -0.110941
-0.27713099 -0.228047 -0.110941
-0.268538 -0.22793999 -0.110941
-0.25994399 -0.23023 -0.110941
-0.174006 -0.265591 -0.110941
-0.17493799 -0.26528999 -0.110941
-0.16541301 -0.268558 -0.110941
-0.156819 -0.27137399 -0.110941
-0.14822499 -0.27309999 -0.110941
-0.139631 -0.27363199 -0.110941
-0.131038 -0.27359799 -0.110941
-0.11385 -0.27392399 -0.110941
-0.114564 -0.273884 -0.110941
-0.122444 -0.273635 -0.110941
-0.216975 -0.249145 -0.110941
-0.21951599 -0.24810299 -0.110941
-0.234163 -0.241576 -0.110941
-0.238851 -0.239509 -0.110941
-0.24275599 -0.237821 -0.110941
-0.22556899 -0.245534 -0.110941
-0.208381 -0.252601 -0.110941
-0.199788 -0.255867 -0.110941
-0.191194 -0.25901401 -0.110941
-0.19753499 -0.256697 -0.110941
-0.18260001 -0.26250699 -0.110941
-0.108693 -0.273884 -0.110941
-0.105256 -0.27349901 -0.110941
-0.096662499 -0.27059099 -0.110941
-0.089818701 -0.26528999 -0.110941
-0.088068798 -0.26351199 -0.110941
-0.082264602 -0.256697 -0.110941
-0.079475001 -0.253122 -0.110941
-0.075449899 -0.24810299 -0.110941
-0.070881203 -0.242301 -0.110941
-0.068682998 -0.239509 -0.110941
-0.062287498 -0.23151299 -0.110941
-0.0618301 -0.23091599 -0.110941
-0.055101 -0.222322 -0.110941
-0.053693801 -0.220322 -0.110941
-0.048874199 -0.213728 -0.110941
-0.0451 -0.20820101 -0.110941
-0.043290399 -0.205134 -0.110941
-0.039179198 -0.196541 -0.110941
-0.311506 -0.19632199 -0.110941
-0.30291301 -0.19500101 -0.110941
-0.294319 -0.19316199 -0.110941
-0.285725 -0.190677 -0.110941
-0.27713099 -0.18804 -0.110941
-0.276806 -0.18794701 -0.110941
-0.268538 -0.18301 -0.110941
-0.26762301 -0.179353 -0.110941
-0.268538 -0.175072 -0.110941
-0.27131 -0.17075901 -0.110941
-0.27713099 -0.162889 -0.110941
-0.27757201 -0.162165 -0.110941
-0.285725 -0.148699 -0.110941
-0.28781199 -0.144978 -0.110941
-0.29214799 -0.136384 -0.110941
-0.294319 -0.13004699 -0.110941
-0.29482499 -0.127791 -0.110941
-0.28291601 -0.15357199 -0.110941
-0.29657599 -0.119197 -0.110941
-0.296857 -0.110603 -0.110941
-0.29458299 -0.102009 -0.110941
-0.294319 -0.101373 -0.110941
-0.289749 -0.093415499 -0.110941
-0.285725 -0.088796802 -0.110941
-0.28040901 -0.084821798 -0.110941
-0.27713099 -0.083222799 -0.110941
-0.268538 -0.081260003 -0.110941
-0.25134999 -0.085639499 -0.110941
-0.25318399 -0.084821798 -0.110941
-0.25994399 -0.082403697 -0.110941
-0.18260001 -0.135772 -0.110941
-0.190258 -0.127791 -0.110941
-0.14822499 -0.17441601 -0.110941
-0.15260801 -0.17075901 -0.110941
-0.156819 -0.16666099 -0.110941
-0.161127 -0.162165 -0.110941
-0.139631 -0.180649 -0.110941
-0.14159 -0.179353 -0.110941
-0.131038 -0.18468 -0.110941
-0.122444 -0.183658 -0.110941
-0.115251 -0.179353 -0.110941
-0.11385 -0.178444 -0.110941
-0.16541301 -0.15715 -0.110941
-0.16799299 -0.15357199 -0.110941
-0.174006 -0.14603999 -0.110941
-0.17486601 -0.144978 -0.110941
-0.18209399 -0.136384 -0.110941
-0.234163 -0.0953243 -0.110941
-0.237424 -0.093415499 -0.110941
-0.216975 -0.10552 -0.110941
-0.222663 -0.102009 -0.110941
-0.22556899 -0.100411 -0.110941
-0.208381 -0.111936 -0.110941
-0.21018299 -0.110603 -0.110941
-0.199788 -0.118822 -0.110941
-0.191194 -0.12688699 -0.110941
-0.19936 -0.119197 -0.110941
-0.24275599 -0.090268798 -0.110941
-0.105256 -0.17392799 -0.110941
-0.099587403 -0.17075901 -0.110941
-0.096662499 -0.168824 -0.110941
-0.092031099 -0.162165 -0.110941
-0.091690898 -0.15357199 -0.110941
-0.091564298 -0.144978 -0.110941
-0.091371201 -0.136384 -0.110941
-0.089993998 -0.127791 -0.110941
-0.036506299 -0.18869901 -0.110941
-0.036258001 -0.18794701 -0.110941
-0.033913601 -0.179353 -0.110941
-0.031848799 -0.17075901 -0.110941
-0.0295892 -0.162165 -0.110941
-0.027912499 -0.155735 -0.110941
-0.027241301 -0.15357199 -0.110941
-0.023383999 -0.144978 -0.110941
-0.0193188 -0.139228 -0.110941
-0.017090101 -0.136384 -0.110941
-0.010725 -0.12926801 -0.110941
-0.0091138501 -0.127791 -0.110941
-0.088068798 -0.121906 -0.110941
-0.0866905 -0.119197 -0.110941
-0.082910299 -0.110603 -0.110941
-0.079475001 -0.103758 -0.110941
-0.078151897 -0.102009 -0.110941
-0.072361901 -0.093415499 -0.110941
-0.070881203 -0.090782501 -0.110941
-0.067253098 -0.084821798 -0.110941
-0.062287498 -0.078648202 -0.110941
-0.059996501 -0.076228 -0.110941
-0.053693801 -0.069137603 -0.110941
-0.0528032 -0.067634203 -0.110941
-0.049706001 -0.059040502 -0.110941
-0.00213128 -0.122322 -0.110941
0.00192136 -0.119197 -0.110941
0.0064625102 -0.114764 -0.110941
0.0098954998 -0.110603 -0.110941
0.0150562 -0.104609 -0.110941
0.017543901 -0.102009 -0.110941
0.02365 -0.094912298 -0.110941
-0.0466475 -0.0504467 -0.110941
-0.0451 -0.0470118 -0.110941
-0.042782702 -0.041852999 -0.110941
-0.0395151 -0.033259202 -0.110941
-0.0365831 -0.024665499 -0.110941
-0.036506299 -0.024464799 -0.110941
-0.032686301 -0.0160717 -0.110941
-0.029126201 -0.0074780001 -0.110941
-0.027912499 -0.00373796 -0.110941
-0.026154799 0.00111574 -0.110941
-0.022126099 0.00970951 -0.110941
-0.0193188 0.017326901 -0.110941
-0.019127499 0.018303299 -0.110941
-0.0161056 0.026897 -0.110941
-0.0108527 0.0354908 -0.110941
-0.010725 0.035671301 -0.110941
-0.0062044901 0.044084501 -0.110941
-0.0039701499 0.052678201 -0.110941
-0.00213128 0.0596864 -0.110941
-0.00150949 0.061271999 -0.110941
0.00332028 0.0698658 -0.110941
0.0064625102 0.075125098 -0.110941
0.00790215 0.078459501 -0.110941
0.16114999 -0.197217 -0.110941
0.16052499 -0.196541 -0.110941
0.17833801 -0.207873 -0.110941
0.17178699 -0.205134 -0.110941
0.169744 -0.20404901 -0.110941
0.186931 -0.20947801 -0.110941
0.19552501 -0.209924 -0.110941
0.204119 -0.21025001 -0.110941
0.212712 -0.21023899 -0.110941
0.221306 -0.210576 -0.110941
0.2299 -0.211769 -0.110941
0.29005599 -0.231792 -0.110941
0.28471601 -0.23091599 -0.110941
0.29865 -0.231528 -0.110941
0.23849399 -0.213781 -0.110941
0.238297 -0.213728 -0.110941
0.247087 -0.216451 -0.110941
0.26427501 -0.223424 -0.110941
0.26153001 -0.222322 -0.110941
0.25568101 -0.21999 -0.110941
0.27286899 -0.227074 -0.110941
0.28146201 -0.230069 -0.110941
0.29865 -0.199644 -0.110941
0.29578701 -0.196541 -0.110941
0.30092299 -0.23091599 -0.110941
0.307244 -0.225127 -0.110941
0.30800301 -0.222322 -0.110941
0.307244 -0.214003 -0.110941
0.30715901 -0.213728 -0.110941
0.30272201 -0.205134 -0.110941
0.153868 -0.18794701 -0.110941
0.152556 -0.18584 -0.110941
0.149232 -0.179353 -0.110941
0.14396299 -0.164423 -0.110941
0.143448 -0.162165 -0.110941
0.145807 -0.17075901 -0.110941
0.141634 -0.15357199 -0.110941
0.14053699 -0.144978 -0.110941
0.14139099 -0.136384 -0.110941
0.142718 -0.127791 -0.110941
0.024801699 -0.093415499 -0.110941
0.0311803 -0.084821798 -0.110941
0.032243699 -0.083190903 -0.110941
0.036207799 -0.076228 -0.110941
0.0408375 -0.068833202 -0.110941
0.041672099 -0.067634203 -0.110941
0.047798101 -0.059040502 -0.110941
0.14396299 -0.119333 -0.110941
0.143994 -0.119197 -0.110941
0.146173 -0.110603 -0.110941
0.148395 -0.102009 -0.110941
0.15099099 -0.093415499 -0.110941
0.152556 -0.089552298 -0.110941
0.155022 -0.084821798 -0.110941
0.159953 -0.076228 -0.110941
0.16114999 -0.074086197 -0.110941
0.28146201 -0.181584 -0.110941
0.28021699 -0.179353 -0.110941
0.29005599 -0.191218 -0.110941
0.28649101 -0.18794701 -0.110941
0.278635 -0.17075901 -0.110941
0.28146201 -0.16305199 -0.110941
0.28180099 -0.162165 -0.110941
0.28361899 -0.15357199 -0.110941
0.28341201 -0.144978 -0.110941
0.28146201 -0.13623901 -0.110941
0.27846399 -0.127791 -0.110941
0.28151199 -0.136384 -0.110941
0.165141 -0.067634203 -0.110941
0.169744 -0.060347199 -0.110941
0.17055 -0.059040502 -0.110941
0.26427501 -0.100271 -0.110941
0.26148799 -0.093415499 -0.110941
0.27468801 -0.119197 -0.110941
0.27286899 -0.115138 -0.110941
0.27069399 -0.110603 -0.110941
0.26556 -0.102009 -0.110941
0.26344499 -0.084821798 -0.110941
0.26427501 -0.0831974 -0.110941
0.26790899 -0.076228 -0.110941
0.27277499 -0.067634203 -0.110941
0.27286899 -0.067486003 -0.110941
0.27836099 -0.059040502 -0.110941
0.049431302 -0.0562931 -0.110941
0.052863698 -0.0504467 -0.110941
0.058024999 -0.041933 -0.110941
0.058067799 -0.041852999 -0.110941
0.062749803 -0.033259202 -0.110941
0.066618703 -0.0262677 -0.110941
0.067438804 -0.024665499 -0.110941
0.071901299 -0.0160717 -0.110941
0.075212501 -0.0085251899 -0.110941
0.075626597 -0.0074780001 -0.110941
0.0796903 0.00111574 -0.110941
0.083806202 0.0082885902 -0.110941
0.084737897 0.00970951 -0.110941
0.090470999 0.018303299 -0.110941
0.092399999 0.021622499 -0.110941
0.0954438 0.026897 -0.110941
0.100321 0.0354908 -0.110941
0.100994 0.036897302 -0.110941
0.105526 0.044084501 -0.110941
0.109587 0.049852401 -0.110941
0.111406 0.052678201 -0.110941
0.117936 0.061271999 -0.110941
0.118181 0.061595902 -0.110941
0.125825 0.0698658 -0.110941
0.126775 0.070743904 -0.110941
0.13435 0.078459501 -0.110941
0.176275 -0.0504467 -0.110941
0.17833801 -0.0475723 -0.110941
0.182677 -0.041852999 -0.110941
0.186931 -0.036085501 -0.110941
0.188944 -0.033259202 -0.110941
0.19552501 -0.0246797 -0.110941
0.195536 -0.024665499 -0.110941
0.201904 -0.0160717 -0.110941
0.204119 -0.0129893 -0.110941
0.208244 -0.0074780001 -0.110941
0.212712 -0.00173548 -0.110941
0.214847 0.00111574 -0.110941
0.2201 0.00970951 -0.110941
0.28146201 -0.054191399 -0.110941
0.28390601 -0.0504467 -0.110941
0.28885701 -0.041852999 -0.110941
0.29005599 -0.039319899 -0.110941
0.293688 -0.033259202 -0.110941
0.29857999 -0.024665499 -0.110941
0.29865 -0.024518 -0.110941
0.221306 0.0122029 -0.110941
0.224067 0.018303299 -0.110941
0.227632 0.026897 -0.110941
0.229757 0.0354908 -0.110941
0.2299 0.036457099 -0.110941
0.2299 0.066545501 -0.110941
0.229469 0.0698658 -0.110941
0.227887 0.078459501 -0.110941
0.23064201 0.044084501 -0.110941
0.230689 0.052678201 -0.110941
0.230313 0.061271999 -0.110941
0.30342901 -0.0160717 -0.110941
0.307244 -0.0090880701 -0.110941
0.308108 -0.0074780001 -0.110941
0.311997 0.00111574 -0.110941
0.31476599 0.00970951 -0.110941
0.31583801 0.0124459 -0.110941
0.31816399 0.018303299 -0.110941
0.321343 0.026897 -0.110941
0.323342 0.0354908 -0.110941
0.324431 0.041228801 -0.110941
0.325055 0.044084501 -0.110941
0.32666999 0.052678201 -0.110941
0.327261 0.061271999 -0.110941
0.32717401 0.0698658 -0.110941
0.32778901 0.078459501 -0.110941
-0.18260001 0.207432 -0.110941
-0.18367399 0.215959 -0.110941
-0.156819 0.159236 -0.110941
-0.163994 0.164397 -0.110941
-0.14822499 0.15613499 -0.110941
-0.16541301 0.16543899 -0.110941
-0.17378201 0.17299099 -0.110941
-0.174006 0.173197 -0.110941
-0.180049 0.181584 -0.110941
-0.139631 0.157279 -0.110941
-0.13241901 0.164397 -0.110941
-0.131038 0.166471 -0.110941
-0.122444 0.17226601 -0.110941
-0.120651 0.17299099 -0.110941
-0.11385 0.178251 -0.110941
-0.180435 0.19017801 -0.110941
-0.180948 0.198772 -0.110941
-0.18258899 0.207366 -0.110941
0.0118281 0.087053202 -0.110941
0.0150562 0.093605801 -0.110941
0.0160385 0.095647 -0.110941
0.0204027 0.104241 -0.110941
0.02365 0.110882 -0.110941
-0.111487 0.181584 -0.110941
-0.105256 0.188117 -0.110941
-0.103344 0.19017801 -0.110941
-0.097592503 0.198772 -0.110941
-0.096662499 0.20063999 -0.110941
-0.093806401 0.207366 -0.110941
-0.090857498 0.215959 -0.110941
-0.184397 0.224553 -0.110941
-0.184617 0.233147 -0.110941
-0.186764 0.241741 -0.110941
-0.191194 0.247904 -0.110941
-0.194745 0.25033501 -0.110941
-0.199788 0.25287899 -0.110941
-0.20795999 0.258928 -0.110941
-0.208381 0.25936201 -0.110941
-0.210287 0.26752201 -0.110941
-0.20872401 0.27611601 -0.110941
-0.208828 0.28470999 -0.110941
-0.208381 0.293136 -0.110941
-0.208362 0.29330301 -0.110941
-0.207247 0.30189699 -0.110941
-0.208381 0.30616099 -0.110941
-0.214303 0.310491 -0.110941
-0.21553101 0.319085 -0.110941
-0.20924699 0.32767799 -0.110941
-0.208381 0.32846099 -0.110941
-0.199788 0.33591199 -0.110941
-0.19926 0.336272 -0.110941
-0.191194 0.341667 -0.110941
-0.18507899 0.34486601 -0.110941
-0.18260001 0.345779 -0.110941
-0.11385 0.30163699 -0.110941
-0.114009 0.30189699 -0.110941
-0.131038 0.31665 -0.110941
-0.13857301 0.319085 -0.110941
-0.121216 0.310491 -0.110941
-0.122444 0.31156 -0.110941
-0.14822499 0.321652 -0.110941
-0.15625399 0.32767799 -0.110941
-0.156819 0.328513 -0.110941
-0.160467 0.336272 -0.110941
-0.16541301 0.34475601 -0.110941
-0.165548 0.34486601 -0.110941
-0.174006 0.34755099 -0.110941
-0.139631 0.31932101 -0.110941
-0.089886703 0.224553 -0.110941
-0.090172902 0.233147 -0.110941
-0.091163702 0.241741 -0.110941
-0.092959903 0.25033501 -0.110941
-0.096662499 0.26502299 -0.110941
-0.097553901 0.26752201 -0.110941
-0.094998397 0.258928 -0.110941
-0.101342 0.27611601 -0.110941
-0.105116 0.28470999 -0.110941
-0.105256 0.28505999 -0.110941
-0.109185 0.29330301 -0.110941
-0.00213128 0.38681599 -0.110941
-0.0081537403 0.38783401 -0.110941
0.0038383601 0.38783401 -0.110941
-0.0056745401 0.39642799 -0.110941
0.0064625102 0.38866401 -0.110941
-0.00213128 0.399739 -0.110941
0.0046806298 0.405022 -0.110941
0.0150562 0.392663 -0.110941
0.020328199 0.39642799 -0.110941
0.02365 0.39861399 -0.110941
0.0064625102 0.406178 -0.110941
0.0150562 0.40976501 -0.110941
0.02365 0.40942499 -0.110941
0.024806 0.112835 -0.110941
0.030512899 0.121428 -0.110941
0.032243699 0.12421 -0.110941
0.0354973 0.130022 -0.110941
0.0408375 0.138428 -0.110941
0.040970199 0.138616 -0.110941
0.048239399 0.14721 -0.110941
0.135369 0.079535998 -0.110941
0.14396299 0.086977698 -0.110941
0.144072 0.087053202 -0.110941
0.152556 0.092844501 -0.110941
0.157188 0.095647 -0.110941
0.16114999 0.097840697 -0.110941
0.049431302 0.148316 -0.110941
0.056174099 0.15580299 -0.110941
0.058024999 0.15870801 -0.110941
0.061868701 0.164397 -0.110941
0.066618703 0.16989499 -0.110941
0.070261501 0.17299099 -0.110941
0.075212501 0.176054 -0.110941
0.083656698 0.181584 -0.110941
0.083806202 0.181696 -0.110941
0.092399999 0.188336 -0.110941
0.094899103 0.19017801 -0.110941
0.100994 0.19410001 -0.110941
0.109071 0.198772 -0.110941
0.109587 0.199055 -0.110941
0.118181 0.203917 -0.110941
0.124457 0.207366 -0.110941
0.126775 0.20837601 -0.110941
0.135369 0.21116 -0.110941
0.14396299 0.213746 -0.110941
0.152556 0.21557599 -0.110941
0.15547501 0.215959 -0.110941
0.169744 0.101773 -0.110941
0.17833801 0.104079 -0.110941
0.17923801 0.104241 -0.110941
0.186931 0.105465 -0.110941
0.19552501 0.10588 -0.110941
0.224921 0.087053202 -0.110941
0.221306 0.093040302 -0.110941
0.219115 0.095647 -0.110941
0.212712 0.101459 -0.110941
0.206754 0.104241 -0.110941
0.204119 0.104877 -0.110941
0.221306 0.215479 -0.110941
0.21937899 0.215959 -0.110941
0.2299 0.212088 -0.110941
0.29865 0.163003 -0.110941
0.29736799 0.164397 -0.110941
0.29073799 0.17299099 -0.110941
0.29005599 0.173841 -0.110941
0.28227699 0.181584 -0.110941
0.26427501 0.195667 -0.110941
0.25815201 0.198772 -0.110941
0.247087 0.20539799 -0.110941
0.242835 0.207366 -0.110941
0.23849399 0.208746 -0.110941
0.25568101 0.20028 -0.110941
0.27286899 0.19010299 -0.110941
0.272787 0.19017801 -0.110941
0.28146201 0.18229599 -0.110941
0.16114999 0.21668699 -0.110941
0.169744 0.21770599 -0.110941
0.17833801 0.21848699 -0.110941
0.186931 0.218344 -0.110941
0.19552501 0.218225 -0.110941
0.204119 0.217935 -0.110941
0.212712 0.217043 -0.110941
0.32786301 0.087053202 -0.110941
0.32640001 0.095647 -0.110941
0.32528499 0.104241 -0.110941
0.324431 0.110091 -0.110941
0.32369101 0.112835 -0.110941
0.32032299 0.121428 -0.110941
0.31653699 0.130022 -0.110941
0.31583801 0.132275 -0.110941
0.31376001 0.138616 -0.110941
0.308732 0.14721 -0.110941
0.307244 0.149235 -0.110941
0.303646 0.15580299 -0.110941
0.0275502 0.405022 -0.110941
-0.363069 -0.239509 -0.111699
-0.363069 -0.222322 -0.119437
-0.363069 -0.213728 -0.116604
-0.35447499 -0.205134 -0.113241
-0.34588099 -0.205134 -0.113611
-0.33728799 -0.205134 -0.113993
-0.311506 -0.239509 -0.114534
-0.311506 -0.196541 -0.111354
-0.30291301 -0.196541 -0.115578
-0.139631 -0.273884 -0.119159
-0.199788 -0.256697 -0.114994
-0.105256 -0.273884 -0.113306
-0.088068798 -0.26528999 -0.113345
-0.079475001 -0.256697 -0.115451
-0.053693801 -0.222322 -0.118323
-0.268538 -0.18794701 -0.114182
-0.25994399 -0.18794701 -0.116169
-0.25134999 -0.18794701 -0.119007
-0.25994399 -0.179353 -0.115093
-0.268538 -0.17075901 -0.113333
-0.27713099 -0.162165 -0.11131
-0.268538 -0.162165 -0.118387
-0.25994399 -0.17075901 -0.119426
-0.285725 -0.144978 -0.112738
-0.285725 -0.136384 -0.116609
-0.294319 -0.127791 -0.111466
-0.285725 -0.127791 -0.118919
-0.27713099 -0.15357199 -0.115673
-0.27713099 -0.144978 -0.119498
-0.294319 -0.119197 -0.113034
-0.294319 -0.110603 -0.11303
-0.285725 -0.110603 -0.119236
-0.294319 -0.102009 -0.111134
-0.285725 -0.102009 -0.116959
-0.285725 -0.093415499 -0.113298
-0.27713099 -0.093415499 -0.117417
-0.25134999 -0.093415499 -0.118592
-0.27713099 -0.084821798 -0.112066
-0.268538 -0.084821798 -0.113971
-0.25994399 -0.084821798 -0.113396
-0.18260001 -0.136384 -0.111614
-0.191194 -0.127791 -0.112084
-0.14822499 -0.179353 -0.118223
-0.16541301 -0.162165 -0.117565
-0.156819 -0.17075901 -0.117107
-0.131038 -0.18794701 -0.117712
-0.11385 -0.179353 -0.112279
-0.174006 -0.15357199 -0.119094
-0.216975 -0.110603 -0.116921
-0.234163 -0.102009 -0.119079
-0.24275599 -0.093415499 -0.114426
-0.22556899 -0.102009 -0.11333
-0.208381 -0.119197 -0.118864
-0.199788 -0.119197 -0.111423
-0.096662499 -0.17075901 -0.111913
-0.088068798 -0.17075901 -0.117986
-0.088068798 -0.162165 -0.112798
-0.088068798 -0.15357199 -0.112875
-0.088068798 -0.144978 -0.112967
-0.088068798 -0.136384 -0.112809
-0.088068798 -0.127791 -0.112108
-0.036506299 -0.18794701 -0.112408
-0.036506299 -0.179353 -0.118817
-0.027912499 -0.15357199 -0.111428
-0.027912499 -0.144978 -0.113008
-0.027912499 -0.136384 -0.114386
-0.036506299 -0.127791 -0.118774
-0.027912499 -0.127791 -0.115383
-0.0193188 -0.136384 -0.111566
-0.0193188 -0.127791 -0.113157
-0.010725 -0.127791 -0.111254
-0.079475001 -0.119197 -0.119372
-0.079475001 -0.110603 -0.113907
-0.070881203 -0.093415499 -0.112131
-0.062287498 -0.084821798 -0.114567
-0.053693801 -0.076228 -0.113806
-0.0451 -0.076228 -0.116419
-0.0451 -0.067634203 -0.114223
-0.0451 -0.059040502 -0.1134
-0.036506299 -0.119197 -0.117708
-0.027912499 -0.119197 -0.115762
-0.036506299 -0.110603 -0.117055
-0.027912499 -0.110603 -0.116452
-0.0193188 -0.119197 -0.114543
-0.010725 -0.119197 -0.113367
-0.0193188 -0.110603 -0.116279
-0.010725 -0.110603 -0.115685
-0.036506299 -0.102009 -0.117621
-0.027912499 -0.102009 -0.117835
-0.036506299 -0.093415499 -0.118391
-0.027912499 -0.093415499 -0.118756
-0.0193188 -0.102009 -0.117913
-0.010725 -0.102009 -0.116948
-0.0193188 -0.093415499 -0.118738
-0.010725 -0.093415499 -0.117687
-0.00213128 -0.119197 -0.111881
-0.00213128 -0.110603 -0.114281
0.0064625102 -0.110603 -0.112017
-0.00213128 -0.102009 -0.11552
0.0064625102 -0.102009 -0.113875
-0.00213128 -0.093415499 -0.116379
0.0064625102 -0.093415499 -0.1157
0.0150562 -0.102009 -0.111701
0.0150562 -0.093415499 -0.114556
0.02365 -0.093415499 -0.111486
-0.036506299 -0.084821798 -0.118029
-0.027912499 -0.084821798 -0.118605
-0.036506299 -0.076228 -0.117316
-0.027912499 -0.076228 -0.118524
-0.0193188 -0.084821798 -0.119067
-0.010725 -0.084821798 -0.118929
-0.036506299 -0.067634203 -0.117148
-0.027912499 -0.067634203 -0.118969
-0.036506299 -0.059040502 -0.116743
-0.027912499 -0.059040502 -0.118729
-0.00213128 -0.084821798 -0.11812
0.0064625102 -0.084821798 -0.117742
0.0150562 -0.084821798 -0.117053
0.02365 -0.084821798 -0.11454
0.0150562 -0.076228 -0.118745
0.02365 -0.076228 -0.116607
0.02365 -0.067634203 -0.118128
-0.0451 -0.0504467 -0.111813
-0.036506299 -0.0504467 -0.115259
-0.027912499 -0.0504467 -0.117662
-0.036506299 -0.041852999 -0.11368
-0.027912499 -0.041852999 -0.117023
-0.036506299 -0.033259202 -0.112508
-0.027912499 -0.033259202 -0.116855
-0.036506299 -0.024665499 -0.110985
-0.027912499 -0.024665499 -0.115918
-0.027912499 -0.0160717 -0.113864
-0.027912499 -0.0074780001 -0.111795
-0.0193188 -0.0160717 -0.118731
-0.0193188 -0.0074780001 -0.117417
-0.0193188 0.00111574 -0.115526
-0.010725 0.00111574 -0.119465
-0.0193188 0.00970951 -0.112894
-0.010725 0.00970951 -0.11763
-0.010725 0.018303299 -0.116122
-0.010725 0.026897 -0.114305
-0.010725 0.0354908 -0.111027
-0.00213128 0.026897 -0.118742
-0.00213128 0.0354908 -0.116566
-0.00213128 0.044084501 -0.113955
0.0064625102 0.044084501 -0.119197
-0.00213128 0.052678201 -0.112418
0.0064625102 0.052678201 -0.118064
0.0064625102 0.061271999 -0.115947
0.0064625102 0.0698658 -0.11272
0.0150562 0.0698658 -0.117438
0.0150562 0.078459501 -0.115525
0.16114999 -0.196541 -0.111211
0.17833801 -0.205134 -0.112459
0.169744 -0.196541 -0.11461
0.17833801 -0.196541 -0.118552
0.186931 -0.205134 -0.113881
0.19552501 -0.205134 -0.11507
0.29005599 -0.23091599 -0.112194
0.29865 -0.23091599 -0.111448
0.29865 -0.222322 -0.117192
0.29865 -0.213728 -0.119224
0.29865 -0.205134 -0.116589
0.307244 -0.222322 -0.111491
0.16114999 -0.18794701 -0.11496
0.152556 -0.179353 -0.112998
0.14396299 -0.162165 -0.111263
0.152556 -0.17075901 -0.115348
0.152556 -0.162165 -0.116756
0.14396299 -0.15357199 -0.112501
0.14396299 -0.144978 -0.113402
0.152556 -0.15357199 -0.117637
0.152556 -0.144978 -0.118449
0.14396299 -0.136384 -0.112856
0.14396299 -0.127791 -0.111907
0.152556 -0.136384 -0.118292
0.152556 -0.127791 -0.117533
0.032243699 -0.076228 -0.112956
0.032243699 -0.067634203 -0.115361
