# .PCD v0.7 - Point Cloud Data file format
VERSION 0.7
FIELDS x y z
SIZE 4 4 4
TYPE F F F
COUNT 1 1 1
WIDTH 1449
HEIGHT 1
VIEWPOINT 0 0 0 1 0 0 0
POINTS 1449
DATA ascii
-0.123189 0.28470999 -0.15391
-0.11385 0.28699601 -0.15391
-0.097693503 0.25033501 -0.15391
-0.105109 0.28470999 -0.15391
-0.11385 -0.23091599 -0.15802699
0.19552501 -0.196541 -0.16423
0.2299 -0.196541 -0.16378701
-0.11385 0.25033501 -0.15596101
-0.11385 0.28470999 -0.15459301
-0.32010001 -0.239544 -0.119535
-0.35082799 -0.23091599 -0.119535
-0.32010001 -0.201561 -0.119535
-0.306591 -0.23091599 -0.119535
-0.25134999 -0.223059 -0.119535
-0.27914599 -0.196541 -0.119535
-0.14822499 -0.271961 -0.119535
-0.171143 -0.26528999 -0.119535
-0.11385 -0.27231601 -0.119535
-0.216975 -0.24205901 -0.119535
-0.236018 -0.23091599 -0.119535
-0.18260001 -0.260784 -0.119535
-0.0924218 -0.26528999 -0.119535
-0.079475001 -0.25616401 -0.119535
-0.057878502 -0.23091599 -0.119535
-0.0451 -0.20661899 -0.119535
-0.041789699 -0.196541 -0.119535
-0.27348799 -0.162165 -0.119535
-0.276079 -0.127791 -0.119535
-0.25134999 -0.102073 -0.119535
-0.18260001 -0.13893101 -0.119535
-0.197897 -0.127791 -0.119535
-0.14822499 -0.160592 -0.119535
-0.11385 -0.15596101 -0.119535
-0.216975 -0.115567 -0.119535
-0.086546898 -0.127791 -0.119535
-0.0313696 -0.162165 -0.119535
-0.021969 -0.127791 -0.119535
-0.079475001 -0.115917 -0.119535
-0.0563666 -0.093415499 -0.119535
-0.0451 -0.085970499 -0.119535
-0.010725 -0.097176798 -0.119535
-0.0086449403 -0.093415499 -0.119535
-0.025530901 -0.059040502 -0.119535
0.021608099 -0.059040502 -0.119535
-0.0149517 -0.024665499 -0.119535
0.02365 -0.056789801 -0.119535
-0.010725 -0.0105618 -0.119535
-0.00427943 0.00970951 -0.119535
0.0086761704 0.044084501 -0.119535
0.0236232 0.078459501 -0.119535
0.19552501 -0.222899 -0.119535
0.162228 -0.196541 -0.119535
0.2299 -0.23014 -0.119535
0.26427501 -0.225032 -0.119535
0.28400499 -0.196541 -0.119535
0.16114999 -0.195086 -0.119535
0.151099 -0.162165 -0.119535
0.15779699 -0.127791 -0.119535
0.16114999 -0.119781 -0.119535
0.27423099 -0.162165 -0.119535
0.26427501 -0.142241 -0.119535
0.25906399 -0.127791 -0.119535
0.172373 -0.093415499 -0.119535
0.191862 -0.059040502 -0.119535
0.25241399 -0.093415499 -0.119535
0.257514 -0.059040502 -0.119535
0.0485745 -0.024665499 -0.119535
0.058024999 -0.0091106296 -0.119535
0.070285298 0.00970951 -0.119535
0.092399999 0.0430835 -0.119535
0.093094602 0.044084501 -0.119535
0.12401 0.078459501 -0.119535
0.19552501 -0.053757001 -0.119535
0.216262 -0.024665499 -0.119535
0.2299 -0.0037896901 -0.119535
0.26427501 -0.044064701 -0.119535
0.27385399 -0.024665499 -0.119535
0.23634601 0.00970951 -0.119535
0.29032701 0.00970951 -0.119535
0.243912 0.044084501 -0.119535
0.29865 0.0337664 -0.119535
0.235632 0.078459501 -0.119535
0.30129501 0.044084501 -0.119535
0.30613399 0.078459501 -0.119535
-0.14822499 0.17370699 -0.119535
-0.16040599 0.181584 -0.119535
-0.11385 0.17583001 -0.119535
-0.182025 0.215959 -0.119535
0.02365 0.078525297 -0.119535
-0.104521 0.181584 -0.119535
-0.080619797 0.215959 -0.119535
-0.18260001 0.21771701 -0.119535
-0.19288801 0.25033501 -0.119535
-0.199683 0.28470999 -0.119535
-0.187408 0.319085 -0.119535
-0.18260001 0.323535 -0.119535
-0.11385 0.31529701 -0.119535
-0.120318 0.319085 -0.119535
-0.14822499 0.32915199 -0.119535
-0.079475001 0.219972 -0.119535
-0.076415502 0.25033501 -0.119535
-0.079475001 0.27027601 -0.119535
-0.085705899 0.28470999 -0.119535
0.0396525 0.112835 -0.119535
0.058024999 0.141195 -0.119535
0.062565699 0.14721 -0.119535
0.126775 0.080968902 -0.119535
0.16114999 0.103094 -0.119535
0.092399999 0.17684101 -0.119535
0.099117503 0.181584 -0.119535
0.126775 0.197423 -0.119535
0.16114999 0.20787001 -0.119535
0.19552501 0.107591 -0.119535
0.2299 0.087721698 -0.119535
0.29865 0.12752201 -0.119535
0.289974 0.14721 -0.119535
0.19552501 0.208543 -0.119535
0.2299 0.199523 -0.119535
0.26427501 0.178091 -0.119535
0.259785 0.181584 -0.119535
0.30281299 0.112835 -0.119535
-0.32010001 -0.23091599 -0.125956
-0.25134999 -0.196541 -0.127234
-0.14822499 -0.26528999 -0.13936
-0.11385 -0.26528999 -0.143815
-0.216975 -0.23091599 -0.130132
-0.18260001 -0.23091599 -0.144978
-0.216975 -0.196541 -0.137585
-0.18260001 -0.196541 -0.141912
-0.14822499 -0.23091599 -0.153835
-0.14822499 -0.196541 -0.142399
-0.11385 -0.196541 -0.14727899
-0.079475001 -0.23091599 -0.149104
-0.079475001 -0.196541 -0.146623
-0.0451 -0.196541 -0.123557
-0.25134999 -0.162165 -0.129351
-0.25134999 -0.127791 -0.127949
-0.216975 -0.162165 -0.13533901
-0.18260001 -0.162165 -0.129675
-0.216975 -0.127791 -0.126325
-0.14822499 -0.162165 -0.120378
-0.11385 -0.162165 -0.122722
-0.079475001 -0.162165 -0.132296
-0.0451 -0.162165 -0.12710001
-0.079475001 -0.127791 -0.122278
-0.0451 -0.127791 -0.125567
-0.0451 -0.093415499 -0.120993
-0.010725 -0.093415499 -0.119848
-0.010725 -0.059040502 -0.121558
-0.010725 -0.024665499 -0.12077
0.02365 -0.024665499 -0.124345
0.02365 0.00970951 -0.126265
0.02365 0.044084501 -0.124576
0.02365 0.078459501 -0.119547
0.26427501 -0.196541 -0.136948
0.16114999 -0.162165 -0.130807
0.16114999 -0.127791 -0.121756
0.19552501 -0.162165 -0.151168
0.2299 -0.162165 -0.14590199
0.19552501 -0.127791 -0.13414399
0.2299 -0.127791 -0.131357
0.26427501 -0.162165 -0.12688801
0.19552501 -0.093415499 -0.12673201
0.2299 -0.093415499 -0.1269
0.19552501 -0.059040502 -0.120927
0.2299 -0.059040502 -0.12584101
0.058024999 0.00970951 -0.123556
0.058024999 0.044084501 -0.128353
0.092399999 0.044084501 -0.119854
0.058024999 0.078459501 -0.12942301
0.092399999 0.078459501 -0.12859701
0.2299 -0.024665499 -0.123026
0.26427501 -0.024665499 -0.122167
0.26427501 0.00970951 -0.123922
0.26427501 0.044084501 -0.124198
0.29865 0.044084501 -0.120443
0.26427501 0.078459501 -0.125926
0.29865 0.078459501 -0.122062
-0.14822499 0.181584 -0.12352
-0.11385 0.181584 -0.123493
-0.14822499 0.215959 -0.139033
-0.11385 0.215959 -0.146358
-0.18260001 0.25033501 -0.125626
-0.18260001 0.28470999 -0.12928601
-0.14822499 0.25033501 -0.147112
-0.14822499 0.28470999 -0.147387
-0.18260001 0.319085 -0.12225
-0.14822499 0.319085 -0.132431
-0.079475001 0.25033501 -0.13322701
0.058024999 0.112835 -0.12629101
0.092399999 0.112835 -0.132517
0.092399999 0.14721 -0.129283
0.126775 0.112835 -0.130558
0.16114999 0.112835 -0.124461
0.126775 0.14721 -0.134459
0.16114999 0.14721 -0.134735
0.126775 0.181584 -0.12679601
0.16114999 0.181584 -0.131299
0.19552501 0.112835 -0.1222
0.2299 0.112835 -0.126177
0.19552501 0.14721 -0.133497
0.2299 0.14721 -0.13193899
0.26427501 0.112835 -0.12823901
0.29865 0.112835 -0.121121
0.26427501 0.14721 -0.12718099
0.19552501 0.181584 -0.13122299
0.2299 0.181584 -0.126941
-0.35447499 -0.237177 -0.085160002
-0.356915 -0.23091599 -0.085160002
-0.32010001 -0.250397 -0.085160002
-0.35447499 -0.209457 -0.085160002
-0.342159 -0.196541 -0.085160002
-0.285725 -0.243536 -0.085160002
-0.25134999 -0.24479499 -0.085160002
-0.18260001 -0.26634699 -0.085160002
-0.186673 -0.26528999 -0.085160002
-0.14822499 -0.27283701 -0.085160002
-0.11385 -0.271842 -0.085160002
-0.216975 -0.25594401 -0.085160002
-0.089089401 -0.26528999 -0.085160002
-0.079475001 -0.26076201 -0.085160002
-0.0451 -0.23396499 -0.085160002
-0.042026501 -0.23091599 -0.085160002
-0.0130255 -0.196541 -0.085160002
-0.32010001 -0.18096501 -0.085160002
-0.311151 -0.162165 -0.085160002
-0.31335899 -0.127791 -0.085160002
-0.31151801 -0.093415499 -0.085160002
-0.285725 -0.061732199 -0.085160002
-0.28040099 -0.059040502 -0.085160002
-0.25134999 -0.057690501 -0.085160002
-0.18260001 -0.0998789 -0.085160002
-0.195408 -0.093415499 -0.085160002
-0.216975 -0.079314999 -0.085160002
-0.24769001 -0.059040502 -0.085160002
-0.14822499 -0.106308 -0.085160002
-0.119858 -0.093415499 -0.085160002
-0.11385 -0.088523403 -0.085160002
-0.010725 -0.19340201 -0.085160002
0.0119844 -0.162165 -0.085160002
0.02365 -0.146071 -0.085160002
-0.086413302 -0.059040502 -0.085160002
-0.18260001 0.059282299 -0.085160002
-0.196886 0.078459501 -0.085160002
-0.14822499 0.069986098 -0.085160002
-0.13524599 0.078459501 -0.085160002
-0.079475001 -0.049038 -0.085160002
-0.0652996 -0.024665499 -0.085160002
-0.048844401 0.00970951 -0.085160002
-0.0451 0.019233899 -0.085160002
-0.034870401 0.044084501 -0.085160002
-0.0191852 0.078459501 -0.085160002
0.16114999 -0.23105399 -0.085160002
0.16096599 -0.23091599 -0.085160002
0.133412 -0.196541 -0.085160002
0.19552501 -0.245437 -0.085160002
0.2299 -0.2455 -0.085160002
0.26427501 -0.24304099 -0.085160002
0.29865 -0.241557 -0.085160002
0.319161 -0.23091599 -0.085160002
0.316502 -0.196541 -0.085160002
0.035982698 -0.127791 -0.085160002
0.126775 -0.174761 -0.085160002
0.12516101 -0.162165 -0.085160002
0.126324 -0.127791 -0.085160002
0.056941699 -0.093415499 -0.085160002
0.058024999 -0.091247 -0.085160002
0.074842297 -0.059040502 -0.085160002
0.126775 -0.124851 -0.085160002
0.134799 -0.093415499 -0.085160002
0.15267301 -0.059040502 -0.085160002
0.29865 -0.15981001 -0.085160002
0.28599501 -0.127791 -0.085160002
0.283391 -0.093415499 -0.085160002
0.29743001 -0.059040502 -0.085160002
0.091518603 -0.024665499 -0.085160002
0.092399999 -0.022624999 -0.085160002
0.16114999 -0.044857699 -0.085160002
0.109299 0.00970951 -0.085160002
0.126775 0.0365589 -0.085160002
0.13277499 0.044084501 -0.085160002
0.16114999 0.065591298 -0.085160002
0.173686 -0.024665499 -0.085160002
0.194205 0.00970951 -0.085160002
0.29865 -0.056886699 -0.085160002
0.19552501 0.012656 -0.085160002
0.200581 0.044084501 -0.085160002
0.19552501 0.058738101 -0.085160002
0.299694 -0.162165 -0.085160002
0.31797999 -0.024665499 -0.085160002
0.33302501 0.00591785 -0.085160002
0.334474 0.00970951 -0.085160002
0.34605899 0.044084501 -0.085160002
0.35247299 0.078459501 -0.085160002
-0.25134999 0.26275599 -0.085160002
-0.25327399 0.28470999 -0.085160002
-0.25134999 0.29475299 -0.085160002
-0.193159 0.112835 -0.085160002
-0.198856 0.14721 -0.085160002
-0.11385 0.096544102 -0.085160002
-0.216975 0.175855 -0.085160002
-0.221379 0.181584 -0.085160002
-0.237321 0.215959 -0.085160002
-0.098459698 0.112835 -0.085160002
-0.079475001 0.143786 -0.085160002
-0.078171603 0.14721 -0.085160002
-0.010725 0.098444998 -0.085160002
-0.0043454799 0.112835 -0.085160002
0.016006101 0.14721 -0.085160002
-0.068671197 0.181584 -0.085160002
-0.064859703 0.215959 -0.085160002
0.02365 0.15848701 -0.085160002
-0.247137 0.25033501 -0.085160002
-0.233233 0.319085 -0.085160002
-0.216975 0.33069301 -0.085160002
-0.18260001 0.34593299 -0.085160002
-0.14822499 0.35080999 -0.085160002
-0.11385 0.33694699 -0.085160002
-0.068306103 0.25033501 -0.085160002
-0.079475001 0.280191 -0.085160002
-0.0821549 0.28470999 -0.085160002
-0.101762 0.319085 -0.085160002
0.043256499 0.181584 -0.085160002
0.058024999 0.195114 -0.085160002
0.089414403 0.215959 -0.085160002
0.29865 0.19930901 -0.085160002
0.275574 0.215959 -0.085160002
0.092399999 0.217445 -0.085160002
0.126775 0.231336 -0.085160002
0.16114999 0.23907401 -0.085160002
0.19552501 0.240311 -0.085160002
0.2299 0.234798 -0.085160002
0.26427501 0.221668 -0.085160002
0.349527 0.112835 -0.085160002
0.33747199 0.14721 -0.085160002
0.33302501 0.156866 -0.085160002
0.31596199 0.181584 -0.085160002
-0.35447499 -0.23091599 -0.114188
-0.32010001 -0.196541 -0.112471
-0.285725 -0.23091599 -0.110855
-0.25134999 -0.23091599 -0.112244
-0.285725 -0.196541 -0.118225
-0.18260001 -0.26528999 -0.097954102
-0.0451 -0.23091599 -0.090681903
-0.285725 -0.162165 -0.110775
-0.285725 -0.127791 -0.112925
-0.285725 -0.093415499 -0.10542
-0.25134999 -0.093415499 -0.113743
-0.25134999 -0.059040502 -0.085956603
-0.18260001 -0.127791 -0.112092
-0.14822499 -0.127791 -0.100459
-0.11385 -0.127791 -0.107922
-0.216975 -0.093415499 -0.099685498
-0.11385 -0.093415499 -0.089089803
-0.010725 -0.162165 -0.1044
-0.010725 -0.127791 -0.115216
0.02365 -0.127791 -0.0950372
-0.079475001 -0.093415499 -0.111264
-0.079475001 -0.059040502 -0.091593802
-0.0451 -0.059040502 -0.113644
0.02365 -0.093415499 -0.109845
0.02365 -0.059040502 -0.119081
-0.18260001 0.078459501 -0.087930702
-0.14822499 0.078459501 -0.087913297
-0.0451 -0.024665499 -0.103413
-0.0451 0.00970951 -0.089469202
-0.010725 0.00970951 -0.116638
-0.010725 0.044084501 -0.107918
-0.010725 0.078459501 -0.0941578
0.16114999 -0.23091599 -0.0853002
0.16114999 -0.196541 -0.118136
0.19552501 -0.23091599 -0.103111
0.2299 -0.23091599 -0.114687
0.26427501 -0.23091599 -0.107452
0.29865 -0.23091599 -0.095371902
0.29865 -0.196541 -0.105151
0.126775 -0.162165 -0.087875903
0.126775 -0.127791 -0.085953496
0.058024999 -0.059040502 -0.102076
0.16114999 -0.093415499 -0.112987
0.16114999 -0.059040502 -0.097015299
0.29865 -0.162165 -0.087463997
0.26427501 -0.127791 -0.115811
0.26427501 -0.093415499 -0.111243
0.26427501 -0.059040502 -0.11635
0.058024999 -0.024665499 -0.115415
0.092399999 0.00970951 -0.105318
0.126775 0.044084501 -0.0934503
0.126775 0.078459501 -0.118344
0.16114999 0.078459501 -0.100653
0.19552501 -0.024665499 -0.108353
0.19552501 0.00970951 -0.087140203
0.2299 0.00970951 -0.116859
0.29865 -0.024665499 -0.10568
0.29865 0.00970951 -0.116132
0.2299 0.044084501 -0.112232
0.19552501 0.078459501 -0.100293
0.2299 0.078459501 -0.117106
0.33302501 0.00970951 -0.087136798
0.33302501 0.044084501 -0.099164903
0.33302501 0.078459501 -0.103
-0.25134999 0.28470999 -0.086283199
-0.18260001 0.112835 -0.089565001
-0.18260001 0.14721 -0.0953831
-0.14822499 0.112835 -0.096932098
-0.11385 0.112835 -0.091557898
-0.14822499 0.14721 -0.107774
-0.11385 0.14721 -0.105197
-0.216975 0.181584 -0.087990999
-0.18260001 0.181584 -0.109534
-0.216975 0.215959 -0.098325998
-0.18260001 0.215959 -0.119213
-0.079475001 0.14721 -0.086329699
0.02365 0.112835 -0.110066
0.02365 0.14721 -0.092468403
-0.079475001 0.181584 -0.098620802
-0.079475001 0.215959 -0.116942
-0.216975 0.25033501 -0.105027
-0.216975 0.28470999 -0.109082
-0.216975 0.319085 -0.097593702
-0.11385 0.319085 -0.106627
0.058024999 0.14721 -0.117432
0.058024999 0.181584 -0.0971414
0.092399999 0.181584 -0.117073
0.092399999 0.215959 -0.087165996
0.126775 0.215959 -0.104983
0.16114999 0.215959 -0.113221
0.29865 0.14721 -0.115525
0.19552501 0.215959 -0.113846
0.2299 0.215959 -0.107226
0.26427501 0.181584 -0.118025
0.29865 0.181584 -0.098940402
0.26427501 0.215959 -0.091836698
0.33302501 0.112835 -0.100049
0.33302501 0.14721 -0.0895072
-0.32010001 -0.245288 -0.050785001
-0.34077799 -0.23091599 -0.050785001
-0.345539 -0.196541 -0.050785001
-0.285725 -0.25338301 -0.050785001
-0.25134999 -0.25988799 -0.050785001
-0.216975 -0.26596099 -0.050785001
-0.22153801 -0.26528999 -0.050785001
-0.18260001 -0.26951301 -0.050785001
-0.14822499 -0.27116999 -0.050785001
-0.11385 -0.271494 -0.050785001
-0.079475001 -0.26778001 -0.050785001
-0.069555499 -0.26528999 -0.050785001
-0.0451 -0.253205 -0.050785001
-0.0181229 -0.23091599 -0.050785001
-0.010725 -0.22341 -0.050785001
0.0127139 -0.196541 -0.050785001
-0.34134799 -0.162165 -0.050785001
-0.34510401 -0.127791 -0.050785001
-0.34518 -0.093415499 -0.050785001
-0.33683899 -0.059040502 -0.050785001
-0.322714 -0.024665499 -0.050785001
-0.32010001 -0.018533999 -0.050785001
-0.30584601 0.00970951 -0.050785001
-0.285725 0.041537602 -0.050785001
-0.28406799 0.044084501 -0.050785001
-0.25970399 0.078459501 -0.050785001
-0.14822499 -0.073000699 -0.050785001
-0.176524 -0.059040502 -0.050785001
-0.11697 -0.059040502 -0.050785001
0.02365 -0.18263 -0.050785001
-0.17430601 -0.024665499 -0.050785001
-0.11385 -0.056281298 -0.050785001
-0.149919 0.00970951 -0.050785001
-0.14822499 0.011837 -0.050785001
-0.120665 0.044084501 -0.050785001
-0.11385 0.053042799 -0.050785001
-0.086951502 -0.024665499 -0.050785001
-0.079475001 -0.0109442 -0.050785001
-0.070166498 0.00970951 -0.050785001
-0.054847401 0.044084501 -0.050785001
-0.093311802 0.078459501 -0.050785001
-0.0451 0.070811898 -0.050785001
-0.0423433 0.078459501 -0.050785001
0.16114999 -0.25524101 -0.050785001
0.135245 -0.23091599 -0.050785001
0.126775 -0.21758801 -0.050785001
0.118535 -0.196541 -0.050785001
0.19552501 -0.26674899 -0.050785001
0.185467 -0.26528999 -0.050785001
0.2299 -0.266541 -0.050785001
0.24139699 -0.26528999 -0.050785001
0.26427501 -0.262519 -0.050785001
0.29865 -0.26169199 -0.050785001
0.33302501 -0.26125801 -0.050785001
0.35717201 -0.23091599 -0.050785001
0.33726701 -0.196541 -0.050785001
0.037869502 -0.162165 -0.050785001
0.058024999 -0.128969 -0.050785001
0.058594 -0.127791 -0.050785001
0.112067 -0.162165 -0.050785001
0.113946 -0.127791 -0.050785001
0.078133203 -0.093415499 -0.050785001
0.092399999 -0.06157 -0.050785001
0.122896 -0.093415499 -0.050785001
0.126775 -0.082097001 -0.050785001
0.093188196 -0.059040502 -0.050785001
0.138615 -0.059040502 -0.050785001
0.29865 -0.144152 -0.050785001
0.293293 -0.127791 -0.050785001
0.295544 -0.093415499 -0.050785001
0.29865 -0.085505903 -0.050785001
0.105627 -0.024665499 -0.050785001
0.16114999 -0.025340701 -0.050785001
0.121492 0.00970951 -0.050785001
0.126775 0.020983299 -0.050785001
0.145273 0.044084501 -0.050785001
0.16114999 0.052470598 -0.050785001
0.16150901 -0.024665499 -0.050785001
0.181014 0.00970951 -0.050785001
0.185241 0.044084501 -0.050785001
0.33302501 -0.19179 -0.050785001
0.309181 -0.162165 -0.050785001
0.31400701 -0.059040502 -0.050785001
0.33302501 -0.0302625 -0.050785001
0.33631799 -0.024665499 -0.050785001
0.35938901 0.00970951 -0.050785001
0.36739999 0.0207463 -0.050785001
0.38394701 0.044084501 -0.050785001
0.401775 0.068314403 -0.050785001
0.41101399 0.078459501 -0.050785001
-0.25134999 0.090275504 -0.050785001
-0.25134999 0.169375 -0.050785001
-0.267214 0.181584 -0.050785001
-0.27397701 0.215959 -0.050785001
-0.285725 0.248345 -0.050785001
-0.28761899 0.25033501 -0.050785001
-0.298132 0.28470999 -0.050785001
-0.285725 0.31319699 -0.050785001
-0.28064901 0.319085 -0.050785001
-0.25134999 0.337641 -0.050785001
-0.235321 0.112835 -0.050785001
-0.229276 0.14721 -0.050785001
-0.079475001 0.10078 -0.050785001
-0.074280098 0.112835 -0.050785001
-0.0617707 0.14721 -0.050785001
-0.0231704 0.112835 -0.050785001
-0.010725 0.133774 -0.050785001
-0.00204504 0.14721 -0.050785001
-0.055340402 0.181584 -0.050785001
-0.0525809 0.215959 -0.050785001
0.02365 0.177616 -0.050785001
-0.216975 0.34743199 -0.050785001
-0.19205 0.35346001 -0.050785001
-0.0559997 0.25033501 -0.050785001
-0.071078703 0.28470999 -0.050785001
-0.079475001 0.298969 -0.050785001
-0.088817403 0.319085 -0.050785001
-0.105762 0.35346001 -0.050785001
-0.18260001 0.35692701 -0.050785001
-0.14822499 0.369326 -0.050785001
-0.11385 0.36238599 -0.050785001
0.0275578 0.181584 -0.050785001
0.058024999 0.20735 -0.050785001
0.071953803 0.215959 -0.050785001
0.29865 0.213773 -0.050785001
0.29532701 0.215959 -0.050785001
0.092399999 0.225997 -0.050785001
0.126775 0.239068 -0.050785001
0.16114999 0.245691 -0.050785001
0.19552501 0.247041 -0.050785001
0.2299 0.24332 -0.050785001
0.26427501 0.23239601 -0.050785001
0.36739999 0.136445 -0.050785001
0.35784 0.14721 -0.050785001
0.43615001 0.106898 -0.050785001
0.401775 0.129876 -0.050785001
0.43615001 0.146752 -0.050785001
0.33302501 0.18115699 -0.050785001
0.33268699 0.181584 -0.050785001
0.44186199 0.112835 -0.050785001
-0.35447499 -0.23091599 -0.078069203
-0.216975 -0.26528999 -0.052869499
-0.079475001 -0.26528999 -0.0614729
-0.010725 -0.196541 -0.0825276
-0.32010001 -0.162165 -0.074981503
-0.32010001 -0.127791 -0.077457897
-0.32010001 -0.093415499 -0.0765035
-0.32010001 -0.059040502 -0.064244598
-0.285725 -0.059040502 -0.083596297
-0.32010001 -0.024665499 -0.052734099
-0.285725 -0.024665499 -0.069887899
-0.25134999 -0.024665499 -0.074813403
-0.285725 0.00970951 -0.061766401
-0.25134999 0.00970951 -0.0730194
-0.25134999 0.044084501 -0.069295503
-0.25134999 0.078459501 -0.057817899
-0.18260001 -0.093415499 -0.078075498
-0.216975 -0.059040502 -0.073363699
-0.18260001 -0.059040502 -0.054127801
-0.14822499 -0.093415499 -0.072467297
-0.11385 -0.059040502 -0.054447301
0.02365 -0.162165 -0.073681198
-0.216975 -0.024665499 -0.070066199
-0.18260001 -0.024665499 -0.0557549
-0.216975 0.00970951 -0.075974099
-0.18260001 0.00970951 -0.070040703
-0.216975 0.044084501 -0.0796666
-0.18260001 0.044084501 -0.081889898
-0.216975 0.078459501 -0.078699298
-0.14822499 0.044084501 -0.073572703
-0.11385 0.078459501 -0.075461604
-0.079475001 -0.024665499 -0.066495001
-0.0451 0.044084501 -0.071786702
0.126775 -0.196541 -0.074576803
0.19552501 -0.26528999 -0.054950699
0.2299 -0.26528999 -0.0539614
0.33302501 -0.23091599 -0.074868001
0.33302501 -0.196541 -0.059900999
0.058024999 -0.127791 -0.052464701
0.058024999 -0.093415499 -0.083905503
0.092399999 -0.059040502 -0.054004401
0.126775 -0.093415499 -0.068898901
0.29865 -0.059040502 -0.083199501
0.092399999 -0.024665499 -0.083828203
0.19552501 0.044084501 -0.078368701
0.33302501 -0.024665499 -0.0591144
0.36739999 0.044084501 -0.0624316
0.36739999 0.078459501 -0.072350599
0.401775 0.078459501 -0.053552199
-0.25134999 0.181584 -0.063714497
-0.25134999 0.215959 -0.074932702
-0.285725 0.25033501 -0.052538499
-0.25134999 0.25033501 -0.082443997
-0.285725 0.28470999 -0.0616314
-0.25134999 0.319085 -0.073832497
-0.216975 0.112835 -0.069636501
-0.216975 0.14721 -0.068742901
-0.079475001 0.112835 -0.067844301
-0.010725 0.112835 -0.077497497
-0.18260001 0.35346001 -0.064041898
-0.14822499 0.35346001 -0.082088098
-0.11385 0.35346001 -0.075032502
-0.079475001 0.28470999 -0.075437702
0.36739999 0.112835 -0.0694144
0.401775 0.112835 -0.055497501
0.43615001 0.112835 -0.0522881
-0.25134999 -0.26967999 -0.016410001
-0.275116 -0.26528999 -0.016410001
-0.32010001 -0.24384201 -0.016410001
-0.333985 -0.23091599 -0.016410001
-0.35298499 -0.196541 -0.016410001
-0.285725 -0.26219901 -0.016410001
-0.216975 -0.27127099 -0.016410001
-0.18260001 -0.26944801 -0.016410001
-0.14822499 -0.26800001 -0.016410001
-0.11385 -0.269961 -0.016410001
-0.079475001 -0.27166599 -0.016410001
-0.049017198 -0.26528999 -0.016410001
-0.0451 -0.263482 -0.016410001
-0.010725 -0.23699901 -0.016410001
-0.00490171 -0.23091599 -0.016410001
0.02365 -0.197088 -0.016410001
-0.35447499 -0.191817 -0.016410001
-0.362275 -0.162165 -0.016410001
-0.36755899 -0.127791 -0.016410001
-0.367219 -0.093415499 -0.016410001
-0.36106101 -0.059040502 -0.016410001
-0.35447499 -0.035773501 -0.016410001
-0.35054201 -0.024665499 -0.016410001
-0.33303699 0.00970951 -0.016410001
-0.32010001 0.0314469 -0.016410001
-0.31152099 0.044084501 -0.016410001
-0.285725 0.075329803 -0.016410001
-0.28300601 0.078459501 -0.016410001
-0.14822499 -0.0347418 -0.016410001
-0.14892399 -0.024665499 -0.016410001
-0.11385 -0.0442628 -0.016410001
-0.14822499 -0.0182232 -0.016410001
-0.13848101 0.00970951 -0.016410001
-0.11748 0.044084501 -0.016410001
-0.11385 0.050861001 -0.016410001
-0.091010399 -0.024665499 -0.016410001
-0.079475001 -0.00772348 -0.016410001
-0.070811197 0.00970951 -0.016410001
-0.053429499 0.044084501 -0.016410001
-0.098707698 0.078459501 -0.016410001
-0.0451 0.0624579 -0.016410001
-0.037137099 0.078459501 -0.016410001
0.0240275 -0.196541 -0.016410001
0.16114999 -0.26201501 -0.016410001
0.13143 -0.23091599 -0.016410001
0.126775 -0.22194999 -0.016410001
0.118047 -0.196541 -0.016410001
0.19552501 -0.271341 -0.016410001
0.167366 -0.26528999 -0.016410001
0.2299 -0.27037299 -0.016410001
0.26427501 -0.26825199 -0.016410001
0.29865 -0.26796299 -0.016410001
0.33302501 -0.26951 -0.016410001
0.36649501 -0.26528999 -0.016410001
0.36739999 -0.264974 -0.016410001
0.36739999 -0.201334 -0.016410001
0.359687 -0.196541 -0.016410001
0.38753799 -0.23091599 -0.016410001
0.046517201 -0.162165 -0.016410001
0.058024999 -0.139493 -0.016410001
0.063057199 -0.127791 -0.016410001
0.114034 -0.162165 -0.016410001
0.119416 -0.127791 -0.016410001
0.079971202 -0.093415499 -0.016410001
0.091975197 -0.059040502 -0.016410001
0.126775 -0.103413 -0.016410001
0.130504 -0.093415499 -0.016410001
0.150443 -0.059040502 -0.016410001
0.29865 -0.14270701 -0.016410001
0.29328299 -0.127791 -0.016410001
0.29499799 -0.093415499 -0.016410001
0.29865 -0.0844405 -0.016410001
0.092399999 -0.057425302 -0.016410001
0.101551 -0.024665499 -0.016410001
0.16114999 -0.040891599 -0.016410001
0.114112 0.00970951 -0.016410001
0.126775 0.036419298 -0.016410001
0.13158099 0.044084501 -0.016410001
0.16114999 0.0679629 -0.016410001
0.1698 -0.024665499 -0.016410001
0.188115 0.00970951 -0.016410001
0.194951 0.044084501 -0.016410001
0.33302501 -0.180206 -0.016410001
0.31250799 -0.162165 -0.016410001
0.313494 -0.059040502 -0.016410001
0.33302501 -0.031439699 -0.016410001
0.33838901 -0.024665499 -0.016410001
0.36739999 -0.0085495701 -0.016410001
0.401775 -0.0082637696 -0.016410001
0.42203701 0.00970951 -0.016410001
0.42525199 0.044084501 -0.016410001
0.43263799 0.078459501 -0.016410001
-0.25134999 0.112466 -0.016410001
-0.285725 0.16580901 -0.016410001
-0.31198499 0.181584 -0.016410001
-0.25134999 0.160399 -0.016410001
-0.29682899 0.215959 -0.016410001
-0.32010001 0.251775 -0.016410001
-0.35278499 0.28470999 -0.016410001
-0.31574699 0.25033501 -0.016410001
-0.32010001 0.30805001 -0.016410001
-0.30621299 0.319085 -0.016410001
-0.285725 0.333886 -0.016410001
-0.25134999 0.34800401 -0.016410001
-0.25100601 0.112835 -0.016410001
-0.238058 0.14721 -0.016410001
-0.083274603 0.112835 -0.016410001
-0.079475001 0.125137 -0.016410001
-0.072737202 0.14721 -0.016410001
-0.0147742 0.112835 -0.016410001
-0.010725 0.119089 -0.016410001
0.0114831 0.14721 -0.016410001
-0.0590837 0.181584 -0.016410001
-0.046738401 0.215959 -0.016410001
0.02365 0.160623 -0.016410001
-0.216975 0.352359 -0.016410001
-0.203619 0.35346001 -0.016410001
-0.11385 0.34810701 -0.016410001
-0.121696 0.35346001 -0.016410001
-0.0451 0.22332899 -0.016410001
-0.0451 0.26177001 -0.016410001
-0.054806799 0.28470999 -0.016410001
-0.043486699 0.25033501 -0.016410001
-0.079475001 0.31417799 -0.016410001
-0.084323697 0.319085 -0.016410001
-0.18260001 0.356435 -0.016410001
-0.14822499 0.35982499 -0.016410001
0.046875201 0.181584 -0.016410001
0.058024999 0.189895 -0.016410001
0.092399999 0.211652 -0.016410001
0.102251 0.215959 -0.016410001
0.29865 0.19680101 -0.016410001
0.265838 0.215959 -0.016410001
0.126775 0.224085 -0.016410001
0.16114999 0.231111 -0.016410001
0.19552501 0.23227 -0.016410001
0.2299 0.227291 -0.016410001
0.26427501 0.216572 -0.016410001
0.36739999 0.120816 -0.016410001
0.341546 0.14721 -0.016410001
0.43615001 0.0833349 -0.016410001
0.401775 0.146882 -0.016410001
0.40192899 0.14721 -0.016410001
0.33302501 0.1611 -0.016410001
0.31619599 0.181584 -0.016410001
0.43615001 0.18015 -0.016410001
0.470525 0.1088 -0.016410001
0.47572801 0.112835 -0.016410001
0.49187401 0.14721 -0.016410001
0.470525 0.17826401 -0.016410001
-0.25134999 -0.26528999 -0.036392398
-0.010725 -0.23091599 -0.036552601
0.02365 -0.196541 -0.019605801
-0.35447499 -0.162165 -0.032287002
-0.35447499 -0.127791 -0.0393833
-0.35447499 -0.093415499 -0.039306801
-0.35447499 -0.059040502 -0.0296093
-0.32010001 0.00970951 -0.037475798
-0.285725 0.044084501 -0.049503099
-0.14822499 -0.059040502 -0.0385262
-0.14822499 0.00970951 -0.049038999
0.26427501 -0.26528999 -0.043358698
0.29865 -0.26528999 -0.037258402
0.33302501 -0.26528999 -0.039852899
0.36739999 -0.23091599 -0.039069299
0.092399999 -0.059040502 -0.017940899
0.126775 -0.093415499 -0.0239536
0.36739999 0.00970951 -0.042523701
0.401775 0.00970951 -0.024963301
0.401775 0.044084501 -0.041978098
-0.285725 0.181584 -0.035863899
-0.285725 0.215959 -0.035709001
-0.32010001 0.28470999 -0.032362498
-0.285725 0.319085 -0.045303799
-0.079475001 0.112835 -0.023327701
-0.11385 0.35346001 -0.0300117
-0.0451 0.25033501 -0.0213836
0.092399999 0.215959 -0.022558
0.43615001 0.14721 -0.050652999
0.470525 0.112835 -0.033643
0.470525 0.14721 -0.043125201
-0.285725 -0.265953 0.017965
-0.28770301 -0.26528999 0.017965
-0.25134999 -0.27234501 0.017965
-0.32010001 -0.246539 0.017965
-0.336537 -0.23091599 0.017965
-0.35447499 -0.205295 0.017965
-0.35861 -0.196541 0.017965
-0.216975 -0.27089101 0.017965
-0.18260001 -0.26706901 0.017965
-0.14822499 -0.26576 0.017965
-0.11385 -0.26845101 0.017965
-0.079475001 -0.270803 0.017965
-0.049603201 -0.26528999 0.017965
-0.0451 -0.26331499 0.017965
-0.010725 -0.236863 0.017965
-0.0053157201 -0.23091599 0.017965
0.021041401 -0.196541 0.017965
-0.371088 -0.162165 0.017965
-0.376477 -0.127791 0.017965
-0.37561899 -0.093415499 0.017965
-0.368662 -0.059040502 0.017965
-0.35689899 -0.024665499 0.017965
-0.35447499 -0.0184839 0.017965
-0.34009901 0.00970951 0.017965
-0.32010001 0.039124802 0.017965
-0.3163 0.044084501 0.017965
-0.285725 0.076239198 0.017965
-0.28332901 0.078459501 0.017965
0.02365 -0.192118 0.017965
-0.14822499 -0.040462099 0.017965
-0.153827 -0.024665499 0.017965
-0.11385 -0.052739501 0.017965
-0.15062401 0.00970951 0.017965
-0.14822499 0.0171832 0.017965
-0.13806801 0.044084501 0.017965
-0.123099 0.078459501 0.017965
-0.079475001 -0.030863199 0.017965
-0.0740356 -0.024665499 0.017965
-0.049308699 0.00970951 0.017965
-0.0451 0.0174709 0.017965
-0.0292587 0.044084501 0.017965
-0.010725 0.073032297 0.017965
-0.0073151002 0.078459501 0.017965
0.16114999 -0.25738999 0.017965
0.13785601 -0.23091599 0.017965
0.126775 -0.205341 0.017965
0.124618 -0.196541 0.017965
0.19552501 -0.26784801 0.017965
0.17652699 -0.26528999 0.017965
0.225254 -0.26528999 0.017965
0.29865 -0.266096 0.017965
0.293713 -0.26528999 0.017965
0.2299 -0.26444 0.017965
0.26427501 -0.261904 0.017965
0.33302501 -0.270188 0.017965
0.36739999 -0.26775599 0.017965
0.376636 -0.26528999 0.017965
0.401775 -0.241401 0.017965
0.40454501 -0.23091599 0.017965
0.401775 -0.199376 0.017965
0.40033799 -0.196541 0.017965
0.039153501 -0.162165 0.017965
0.0536328 -0.127791 0.017965
0.123261 -0.162165 0.017965
0.126775 -0.145834 0.017965
0.13424601 -0.127791 0.017965
0.058024999 -0.114304 0.017965
0.064312004 -0.093415499 0.017965
0.073975302 -0.059040502 0.017965
0.159014 -0.093415499 0.017965
0.16114999 -0.0907759 0.017965
0.29865 -0.141706 0.017965
0.28608999 -0.127791 0.017965
0.18659399 -0.059040502 0.017965
0.27109101 -0.093415499 0.017965
0.281187 -0.059040502 0.017965
0.0827384 -0.024665499 0.017965
0.091379799 0.00970951 0.017965
0.092399999 0.0136232 0.017965
0.102625 0.044084501 0.017965
0.122827 0.078459501 0.017965
0.19552501 -0.041866899 0.017965
0.202953 -0.024665499 0.017965
0.216249 0.00970951 0.017965
0.29865 -0.0276877 0.017965
0.225022 0.044084501 0.017965
0.22265901 0.078459501 0.017965
0.33302501 -0.16376001 0.017965
0.328991 -0.162165 0.017965
0.36739999 -0.17348699 0.017965
0.401775 -0.072508998 0.017965
0.389011 -0.059040502 0.017965
0.43615001 -0.062605098 0.017965
0.43819001 -0.059040502 0.017965
0.30041099 -0.024665499 0.017965
0.322164 0.00970951 0.017965
0.36739999 -0.011561 0.017965
0.365073 0.00970951 0.017965
0.37116799 -0.024665499 0.017965
0.33040401 0.044084501 0.017965
0.36739999 0.0254393 0.017965
0.327086 0.078459501 0.017965
0.387261 0.044084501 0.017965
0.43615001 0.015691301 0.017965
0.41198999 0.044084501 0.017965
0.401775 0.045978598 0.017965
0.44578299 -0.024665499 0.017965
0.438627 0.00970951 0.017965
-0.38885 0.163315 0.017965
-0.40550399 0.181584 0.017965
-0.38885 0.19983301 0.017965
-0.25134999 0.105261 0.017965
-0.35447499 0.155343 0.017965
-0.32010001 0.155301 0.017965
-0.35447499 0.207267 0.017965
-0.32010001 0.215602 0.017965
-0.285725 0.16105799 0.017965
-0.25134999 0.166144 0.017965
-0.31877699 0.215959 0.017965
-0.38885 0.28040299 0.017965
-0.394472 0.28470999 0.017965
-0.39956599 0.319085 0.017965
-0.38885 0.32779399 0.017965
-0.35447499 0.26366001 0.017965
-0.32010001 0.255032 0.017965
-0.30391699 0.25033501 0.017965
-0.35447499 0.32995501 0.017965
-0.32010001 0.32426199 0.017965
-0.285725 0.33333799 0.017965
-0.25134999 0.344096 0.017965
-0.24138799 0.112835 0.017965
-0.220678 0.14721 0.017965
-0.11385 0.110981 0.017965
-0.113512 0.112835 0.017965
-0.102431 0.14721 0.017965
0.0194159 0.112835 0.017965
0.02365 0.118021 0.017965
-0.0831398 0.181584 0.017965
-0.079475001 0.186956 0.017965
-0.062695503 0.215959 0.017965
-0.216975 0.34566599 0.017965
-0.18260001 0.344823 0.017965
-0.14822499 0.34480599 0.017965
-0.11385 0.33202401 0.017965
-0.056867301 0.25033501 0.017965
-0.070023999 0.28470999 0.017965
-0.079475001 0.29805499 0.017965
-0.099671997 0.319085 0.017965
0.053997401 0.14721 0.017965
0.126775 0.083512701 0.017965
0.16114999 0.108837 0.017965
0.058024999 0.15038 0.017965
0.092399999 0.172667 0.017965
0.113605 0.181584 0.017965
0.126775 0.18617401 0.017965
0.16114999 0.19533899 0.017965
0.19552501 0.107851 0.017965
0.29865 0.146989 0.017965
0.29849201 0.14721 0.017965
0.19552501 0.197583 0.017965
0.2299 0.19137 0.017965
0.26427501 0.177246 0.017965
0.25553399 0.181584 0.017965
0.31809601 0.112835 0.017965
-0.285725 -0.26528999 0.0043129302
-0.35447499 -0.196541 -0.0106416
0.02365 -0.196541 0.0055453801
-0.35447499 -0.024665499 -0.0053425999
-0.14822499 0.00970951 0.0135285
-0.11385 0.078459501 0.0070936098
-0.079475001 -0.024665499 0.0106496
-0.0451 0.044084501 -5.7040001e-05
-0.010725 0.078459501 0.0151498
0.2299 -0.26528999 0.0136247
0.26427501 -0.26528999 0.0048310198
0.36739999 -0.26528999 -0.0152078
0.36739999 -0.196541 -0.00983888
0.401775 -0.23091599 0.0080415001
0.058024999 -0.127791 0.0075938702
0.126775 -0.127791 0.00111032
0.16114999 -0.059040502 -0.00238758
0.29865 -0.059040502 0.0052707801
0.092399999 -0.024665499 0.0045176698
0.092399999 0.00970951 0.016856
0.126775 0.044084501 -0.0086577497
0.126775 0.078459501 0.015614
0.16114999 0.078459501 -0.0045900298
0.19552501 -0.024665499 0.0127379
0.19552501 0.00970951 -0.00307173
0.19552501 0.044084501 -0.0154213
0.19552501 0.078459501 0.0011620499
0.401775 -0.059040502 0.0116485
0.43615001 -0.059040502 0.016489601
0.33302501 -0.024665499 -0.0066458602
0.33302501 0.00970951 0.0134
0.401775 -0.024665499 -0.0079760598
0.43615001 -0.024665499 0.0043559698
0.43615001 0.00970951 0.0026678401
0.33302501 0.044084501 0.0166535
0.36739999 0.044084501 0.0129527
0.33302501 0.078459501 0.0142277
0.36739999 0.078459501 0.00012112
0.401775 0.078459501 0.00069314003
-0.38885 0.181584 0.0124298
-0.35447499 0.181584 0.00274044
-0.32010001 0.181584 -0.0113908
-0.38885 0.28470999 0.00079089002
-0.38885 0.319085 0.0095853796
-0.35447499 0.28470999 -0.016158501
-0.35447499 0.319085 0.0053777699
-0.32010001 0.319085 0.00098818995
-0.079475001 0.14721 -0.0053267502
-0.010725 0.112835 -0.0106022
0.02365 0.14721 -0.0032609701
-0.079475001 0.181584 0.0150562
-0.18260001 0.35346001 -0.0045142798
-0.14822499 0.35346001 -0.00175184
-0.0451 0.25033501 0.0055897799
0.058024999 0.181584 -0.00716674
0.092399999 0.181584 0.0123295
0.126775 0.215959 -0.00597256
0.16114999 0.215959 0.0021140601
0.29865 0.14721 0.017889701
0.19552501 0.215959 0.00335985
0.2299 0.215959 -0.002635
0.26427501 0.181584 0.0154592
0.29865 0.181584 -0.0026585499
0.26427501 0.215959 -0.0156618
0.33302501 0.112835 0.0075951801
0.36739999 0.112835 -0.0129458
0.33302501 0.14721 -0.0077506299
0.401775 0.112835 -0.0055070501
0.43615001 0.112835 0.0056915302
0.43615001 0.14721 0.0138968
0.470525 0.112835 -0.00371486
0.470525 0.14721 0.0145533
-0.25134999 -0.26962501 0.052340001
-0.27550399 -0.26528999 0.052340001
-0.32010001 -0.239967 0.052340001
-0.32972601 -0.23091599 0.052340001
-0.35408801 -0.196541 0.052340001
-0.285725 -0.26188901 0.052340001
-0.216975 -0.27016601 0.052340001
-0.18260001 -0.268125 0.052340001
-0.14822499 -0.267748 0.052340001
-0.11385 -0.26948899 0.052340001
-0.079475001 -0.26942 0.052340001
-0.0565264 -0.26528999 0.052340001
-0.0451 -0.260584 0.052340001
-0.010725 -0.232228 0.052340001
-0.0096705602 -0.23091599 0.052340001
0.0110034 -0.196541 0.052340001
-0.35447499 -0.19569799 0.052340001
-0.36596999 -0.162165 0.052340001
-0.370841 -0.127791 0.052340001
-0.369019 -0.093415499 0.052340001
-0.36096999 -0.059040502 0.052340001
-0.35447499 -0.039538801 0.052340001
-0.348223 -0.024665499 0.052340001
-0.32681999 0.00970951 0.052340001
-0.32010001 0.0190183 0.052340001
-0.296698 0.044084501 0.052340001
-0.285725 0.0530557 0.052340001
-0.25134999 0.076072901 0.052340001
-0.14822499 -0.059590399 0.052340001
-0.14913601 -0.059040502 0.052340001
-0.11385 -0.068637498 0.052340001
0.022812 -0.162165 0.052340001
0.02365 -0.158314 0.052340001
-0.079475001 -0.0609896 0.052340001
-0.074846797 -0.059040502 0.052340001
-0.17438 -0.024665499 0.052340001
-0.176432 0.00970951 0.052340001
-0.246392 0.078459501 0.052340001
-0.172865 0.044084501 0.052340001
-0.176797 0.078459501 0.052340001
-0.0451 -0.042385001 0.052340001
-0.0220627 -0.024665499 0.052340001
-0.010725 -0.015767399 0.052340001
0.02365 -0.0061832699 0.052340001
0.16114999 -0.248934 0.052340001
0.14120001 -0.23091599 0.052340001
0.127611 -0.196541 0.052340001
0.19552501 -0.26318401 0.052340001
0.2299 -0.261801 0.052340001
0.26427501 -0.25714499 0.052340001
0.29865 -0.26186401 0.052340001
0.33302501 -0.267912 0.052340001
0.31491899 -0.26528999 0.052340001
0.36495799 -0.26528999 0.052340001
0.36739999 -0.26458901 0.052340001
0.401775 -0.24034999 0.052340001
0.408039 -0.23091599 0.052340001
0.42217299 -0.196541 0.052340001
0.029304201 -0.127791 0.052340001
0.13090999 -0.162165 0.052340001
0.149349 -0.127791 0.052340001
0.0336321 -0.093415499 0.052340001
0.034888301 -0.059040502 0.052340001
0.16114999 -0.116845 0.052340001
0.26427501 -0.130482 0.052340001
0.25895 -0.127791 0.052340001
0.29865 -0.14083301 0.052340001
0.19552501 -0.101435 0.052340001
0.2299 -0.109504 0.052340001
0.031877201 -0.024665499 0.052340001
0.33302501 -0.13743401 0.052340001
0.35166699 -0.127791 0.052340001
0.43082801 -0.162165 0.052340001
0.43615001 -0.14487299 0.052340001
0.36587399 -0.093415499 0.052340001
0.36739999 -0.071627297 0.052340001
0.36829001 -0.059040502 0.052340001
0.44269699 -0.127791 0.052340001
0.45480001 -0.093415499 0.052340001
0.458379 -0.059040502 0.052340001
0.375103 -0.024665499 0.052340001
0.401775 0.0073191202 0.052340001
0.43615001 -0.002446 0.052340001
0.450257 -0.024665499 0.052340001
-0.42322499 0.16738699 0.052340001
-0.43436301 0.181584 0.052340001
-0.38885 0.152963 0.052340001
-0.42322499 0.21546599 0.052340001
-0.42229801 0.215959 0.052340001
-0.35447499 0.150584 0.052340001
-0.32010001 0.154099 0.052340001
-0.285725 0.163513 0.052340001
-0.25134999 0.17421199 0.052340001
-0.38885 0.221607 0.052340001
-0.38885 0.29019201 0.052340001
-0.40291399 0.319085 0.052340001
-0.38885 0.34141099 0.052340001
-0.35447499 0.21830299 0.052340001
-0.32010001 0.217586 0.052340001
-0.35447499 0.27653599 0.052340001
-0.378416 0.28470999 0.052340001
-0.32010001 0.264337 0.052340001
-0.285725 0.220743 0.052340001
-0.280072 0.25033501 0.052340001
-0.285725 0.25206199 0.052340001
-0.35447499 0.34291601 0.052340001
-0.32010001 0.32363501 0.052340001
-0.285725 0.318535 0.052340001
-0.306981 0.319085 0.052340001
-0.281995 0.319085 0.052340001
-0.25134999 0.322979 0.052340001
-0.216975 0.089119099 0.052340001
-0.18260001 0.086018302 0.052340001
-0.216975 0.178495 0.052340001
-0.18260001 0.17859399 0.052340001
-0.165148 0.181584 0.052340001
-0.14822499 0.198071 0.052340001
-0.146265 0.215959 0.052340001
-0.14822499 0.22871201 0.052340001
-0.150897 0.25033501 0.052340001
-0.156212 0.28470999 0.052340001
-0.18260001 0.311802 0.052340001
-0.206027 0.319085 0.052340001
-0.216975 0.321408 0.052340001
-0.285725 -0.26528999 0.033166401
-0.35447499 -0.196541 0.051102702
-0.35447499 -0.024665499 0.0358999
-0.25134999 0.078459501 0.050436199
-0.14822499 -0.059040502 0.051201299
-0.11385 -0.059040502 0.033250701
0.02365 -0.162165 0.0506742
-0.079475001 -0.059040502 0.0503246
-0.14822499 0.044084501 0.0304037
-0.14822499 0.078459501 0.038679801
-0.0451 -0.024665499 0.042684801
-0.0451 0.00970951 0.0222384
-0.010725 0.00970951 0.044681899
0.02365 0.00970951 0.050361499
-0.010725 0.044084501 0.0311921
0.02365 0.044084501 0.044148501
0.02365 0.078459501 0.034349602
0.126775 -0.196541 0.0340431
0.19552501 -0.26528999 0.036503799
0.29865 -0.26528999 0.0227967
0.36739999 -0.26528999 0.045499898
0.401775 -0.196541 0.019680699
0.126775 -0.162165 0.0337722
0.058024999 -0.093415499 0.027553201
0.058024999 -0.059040502 0.0360571
0.16114999 -0.093415499 0.019807599
0.26427501 -0.127791 0.047182299
0.19552501 -0.093415499 0.040246502
0.2299 -0.093415499 0.039088
0.19552501 -0.059040502 0.0223401
0.2299 -0.059040502 0.031236099
0.26427501 -0.093415499 0.0227302
0.26427501 -0.059040502 0.0254074
0.058024999 -0.024665499 0.0402213
0.058024999 0.00970951 0.042271402
0.058024999 0.044084501 0.042231701
0.092399999 0.044084501 0.0257325
0.058024999 0.078459501 0.039515801
0.092399999 0.078459501 0.032131899
0.2299 -0.024665499 0.0293446
0.2299 0.00970951 0.025974
0.26427501 -0.024665499 0.031044999
0.29865 -0.024665499 0.018879799
0.26427501 0.00970951 0.035353199
0.29865 0.00970951 0.0273585
0.2299 0.044084501 0.021390401
0.2299 0.078459501 0.021932799
0.26427501 0.044084501 0.0349852
0.29865 0.044084501 0.030923501
0.26427501 0.078459501 0.0332295
0.29865 0.078459501 0.030120499
0.33302501 -0.162165 0.0203596
0.36739999 -0.162165 0.027671
0.36739999 -0.127791 0.045233
0.401775 -0.162165 0.033831201
0.401775 -0.127791 0.035724599
0.43615001 -0.127791 0.045938201
0.36739999 -0.093415499 0.050342701
0.401775 -0.093415499 0.026291801
0.43615001 -0.093415499 0.0311499
0.36739999 0.00970951 0.0203832
0.401775 0.00970951 0.050119501
0.43615001 0.00970951 0.034601301
0.401775 0.044084501 0.0193073
-0.42322499 0.181584 0.029731199
-0.38885 0.215959 0.0379311
-0.35447499 0.215959 0.038261399
-0.32010001 0.215959 0.0193724
-0.38885 0.28470999 0.037369899
-0.285725 0.25033501 0.046887599
-0.285725 0.319085 0.051380701
-0.216975 0.112835 0.036071502
-0.18260001 0.112835 0.043937299
-0.216975 0.14721 0.021475101
-0.18260001 0.14721 0.039331801
-0.14822499 0.112835 0.038117301
-0.11385 0.112835 0.018246001
-0.14822499 0.14721 0.040135399
-0.11385 0.14721 0.025588
-0.14822499 0.181584 0.049213499
-0.11385 0.181584 0.0364752
-0.11385 0.215959 0.042387702
0.02365 0.112835 0.0204989
-0.079475001 0.215959 0.0279675
-0.14822499 0.25033501 0.051690102
-0.11385 0.25033501 0.042116102
-0.14822499 0.28470999 0.050340399
-0.11385 0.28470999 0.0393847
-0.18260001 0.319085 0.047874201
-0.14822499 0.319085 0.041762199
-0.11385 0.319085 0.029030301
-0.079475001 0.25033501 0.0297538
-0.079475001 0.28470999 0.0233358
0.058024999 0.112835 0.032749198
0.092399999 0.112835 0.0338156
0.058024999 0.14721 0.019617399
0.092399999 0.14721 0.0280247
0.126775 0.112835 0.0272724
0.16114999 0.112835 0.0199487
0.126775 0.14721 0.0296403
0.16114999 0.14721 0.028979
0.126775 0.181584 0.0201646
0.16114999 0.181584 0.023709301
0.19552501 0.112835 0.0202797
0.2299 0.112835 0.0278905
0.19552501 0.14721 0.029467201
0.2299 0.14721 0.0308541
0.26427501 0.112835 0.0325233
0.29865 0.112835 0.0263862
0.26427501 0.14721 0.028464699
0.19552501 0.181584 0.024787501
0.2299 0.181584 0.022667499
-0.32010001 -0.216778 0.086714998
-0.33323899 -0.196541 0.086714998
-0.285725 -0.24597301 0.086714998
-0.306559 -0.23091599 0.086714998
-0.25134999 -0.26126 0.086714998
-0.216975 -0.26513699 0.086714998
-0.18260001 -0.26275799 0.086714998
-0.14822499 -0.26126501 0.086714998
-0.11385 -0.26494101 0.086714998
-0.079475001 -0.26935899 0.086714998
-0.111647 -0.26528999 0.086714998
-0.0451 -0.26673201 0.086714998
-0.0402813 -0.26528999 0.086714998
-0.010725 -0.24525701 0.086714998
-0.0014624 -0.23091599 0.086714998
0.0080938898 -0.196541 0.086714998
-0.34698799 -0.162165 0.086714998
-0.350876 -0.127791 0.086714998
-0.34778899 -0.093415499 0.086714998
-0.336236 -0.059040502 0.086714998
-0.32010001 -0.031899501 0.086714998
-0.31481701 -0.024665499 0.086714998
-0.285725 0.00071239 0.086714998
-0.265376 0.00970951 0.086714998
-0.25134999 0.0119012 0.086714998
-0.14822499 -0.078234598 0.086714998
-0.176901 -0.059040502 0.086714998
-0.11385 -0.092926599 0.086714998
0.0052807899 -0.162165 0.086714998
-0.00743157 -0.127791 0.086714998
-0.079475001 -0.102684 0.086714998
-0.112344 -0.093415499 0.086714998
-0.0451 -0.105374 0.086714998
-0.010725 -0.122222 0.086714998
-0.18260001 -0.054214399 0.086714998
-0.20843001 -0.024665499 0.086714998
-0.216975 -0.0121582 0.086714998
-0.23959599 0.00970951 0.086714998
0.16114999 -0.24788301 0.086714998
0.13052601 -0.23091599 0.086714998
0.13392401 -0.196541 0.086714998
0.19552501 -0.25810599 0.086714998
0.2299 -0.26014799 0.086714998
0.26427501 -0.25962201 0.086714998
0.29865 -0.26285499 0.086714998
0.33302501 -0.26657799 0.086714998
0.31871799 -0.26528999 0.086714998
0.35488999 -0.26528999 0.086714998
0.36739999 -0.26171499 0.086714998
0.401775 -0.23723 0.086714998
0.40739399 -0.23091599 0.086714998
0.430906 -0.196541 0.086714998
0.14675499 -0.162165 0.086714998
0.16114999 -0.129696 0.086714998
0.162637 -0.127791 0.086714998
0.26427501 -0.137576 0.086714998
0.25416499 -0.127791 0.086714998
0.29865 -0.141829 0.086714998
0.19552501 -0.103725 0.086714998
0.2299 -0.102914 0.086714998
0.325409 -0.127791 0.086714998
0.43615001 -0.18484899 0.086714998
0.33302501 -0.121713 0.086714998
0.355342 -0.093415499 0.086714998
0.36739999 -0.070415497 0.086714998
0.37351301 -0.059040502 0.086714998
0.44492799 -0.162165 0.086714998
0.455378 -0.127791 0.086714998
0.45826101 -0.093415499 0.086714998
0.450589 -0.059040502 0.086714998
0.401775 -0.029710799 0.086714998
0.43615001 -0.036117401 0.086714998
-0.42322499 0.174907 0.086714998
-0.429575 0.181584 0.086714998
-0.38885 0.157726 0.086714998
-0.43002501 0.215959 0.086714998
-0.35447499 0.156091 0.086714998
-0.32010001 0.16719 0.086714998
-0.35447499 0.21529099 0.086714998
-0.35708499 0.215959 0.086714998
-0.32010001 0.203915 0.086714998
-0.30645701 0.181584 0.086714998
-0.42322499 0.220935 0.086714998
-0.38885 0.22412699 0.086714998
-0.32010001 0.28431901 0.086714998
-0.343317 0.28470999 0.086714998
-0.31941599 0.28470999 0.086714998
-0.35447499 0.28849801 0.086714998
-0.37695399 0.319085 0.086714998
-0.32010001 0.30169299 0.086714998
-0.34632999 0.319085 0.086714998
-0.35447499 0.32315201 0.086714998
-0.25134999 -0.26528999 0.073761001
-0.32010001 -0.23091599 0.070837699
-0.216975 -0.26528999 0.086114697
-0.18260001 -0.26528999 0.078984998
-0.14822499 -0.26528999 0.076110996
-0.11385 -0.26528999 0.085415199
-0.0451 -0.26528999 0.082438402
-0.35447499 -0.162165 0.077142201
-0.35447499 -0.127791 0.082539901
-0.35447499 -0.093415499 0.079153202
-0.35447499 -0.059040502 0.065784603
-0.32010001 -0.024665499 0.083552502
-0.32010001 0.00970951 0.060828298
-0.285725 0.00970951 0.082751296
-0.285725 0.044084501 0.060210701
-0.25134999 0.044084501 0.073112503
0.02365 -0.127791 0.059049301
-0.079475001 -0.093415499 0.080475897
-0.0451 -0.093415499 0.081134804
-0.0451 -0.059040502 0.0616071
-0.010725 -0.093415499 0.077247404
0.02365 -0.093415499 0.059654702
-0.010725 -0.059040502 0.065076798
0.02365 -0.059040502 0.057248801
-0.18260001 -0.024665499 0.064131998
-0.216975 0.00970951 0.081160203
-0.18260001 0.00970951 0.058669701
-0.216975 0.044084501 0.071985997
-0.18260001 0.044084501 0.058306701
-0.216975 0.078459501 0.057772301
-0.18260001 0.078459501 0.053954601
-0.010725 -0.024665499 0.0546786
0.02365 -0.024665499 0.054165099
0.16114999 -0.127791 0.083398998
0.33302501 -0.127791 0.066454098
0.43615001 -0.162165 0.059879899
0.401775 -0.024665499 0.0824036
0.43615001 -0.024665499 0.0768378
-0.42322499 0.215959 0.0532545
-0.35447499 0.215959 0.084217303
-0.32010001 0.215959 0.062386401
-0.285725 0.181584 0.078485303
-0.25134999 0.181584 0.065614603
-0.285725 0.215959 0.062554397
-0.25134999 0.215959 0.065411001
-0.38885 0.319085 0.075960301
-0.35447499 0.28470999 0.079298101
-0.25134999 0.25033501 0.061417501
-0.285725 0.28470999 0.079029702
-0.25134999 0.28470999 0.073829301
-0.32010001 0.319085 0.065280899
-0.25134999 0.319085 0.056557398
-0.216975 0.181584 0.056515299
-0.18260001 0.181584 0.054060601
-0.216975 0.215959 0.064758196
-0.18260001 0.215959 0.0603613
-0.14822499 0.215959 0.052873399
-0.216975 0.25033501 0.061551001
-0.18260001 0.25033501 0.058145899
-0.216975 0.28470999 0.067109697
-0.18260001 0.28470999 0.058744501
-0.216975 0.319085 0.054387301
-0.33979899 0.29962999 0.081906602
