# .PCD v0.7 - Point Cloud Data file format
VERSION 0.7
FIELDS x y z
SIZE 4 4 4
TYPE F F F
COUNT 1 1 1
WIDTH 1479
HEIGHT 1
VIEWPOINT 0 0 0 1 0 0 0
POINTS 1479
DATA ascii
0.02365 0.044084501 0.0423273
0.02365 0.061271999 0.038514499
0.16114999 -0.24810299 0.041764598
0.17833801 -0.26528999 0.049852598
0.247087 -0.23091599 0.037967801
0.26427501 -0.213728 0.045892399
0.26427501 -0.196541 0.0444424
0.401775 -0.24810299 0.040464301
0.418962 -0.213728 0.050843801
0.418962 -0.196541 0.040054101
0.126775 -0.162165 0.049638402
0.0408375 -0.110603 0.038559001
0.0408375 -0.093415499 0.043876801
0.0408375 -0.076228 0.046785399
0.0408375 -0.059040502 0.0481309
0.212712 -0.127791 0.044202302
0.2299 -0.127791 0.0374121
0.28146201 -0.179353 0.0394077
0.247087 -0.144978 0.051519699
0.0408375 -0.041852999 0.048636999
0.058024999 -0.041852999 0.0366107
0.0408375 -0.024665499 0.048364501
0.058024999 -0.024665499 0.0389947
0.0408375 -0.0074780001 0.048276201
0.058024999 -0.0074780001 0.040429901
0.0408375 0.00970951 0.047452301
0.058024999 0.00970951 0.0411763
0.0408375 0.026897 0.045366
0.058024999 0.026897 0.0412497
0.0408375 0.044084501 0.043127101
0.058024999 0.044084501 0.040832199
0.0408375 0.061271999 0.039978601
0.058024999 0.061271999 0.039454199
0.0408375 0.078459501 0.0365416
0.058024999 0.078459501 0.037577499
0.075212501 0.061271999 0.0358845
0.075212501 0.078459501 0.036082499
0.33302501 -0.162165 0.040029801
0.35021299 -0.162165 0.046644401
0.36739999 -0.162165 0.048015598
0.31583801 -0.144978 0.046567101
0.33302501 -0.144978 0.049199902
0.384588 -0.162165 0.046453901
0.401775 -0.162165 0.039123099
0.418962 -0.179353 0.037569799
0.43615001 -0.162165 0.045369301
0.384588 -0.144978 0.049313899
0.401775 -0.144978 0.0407161
0.384588 -0.127791 0.049977198
0.401775 -0.127791 0.041562598
0.43615001 -0.144978 0.039200701
0.43615001 -0.127791 0.035638001
0.36739999 -0.093415499 0.050620299
0.384588 -0.110603 0.046705302
0.401775 -0.110603 0.038365498
0.384588 -0.093415499 0.040683899
0.45333701 -0.110603 0.046562701
0.45333701 -0.093415499 0.036815301
0.384588 -0.0074780001 0.0520285
0.384588 0.00970951 0.039921898
0.43615001 0.00970951 0.050476801
0.401775 0.026897 0.0421548
0.418962 0.026897 0.0418589
0.45333701 -0.0074780001 0.043854699
-0.4576 0.181584 0.041148301
-0.440413 0.164397 0.039384302
-0.40603799 0.164397 0.044234902
-0.440413 0.198772 0.038848199
-0.42322499 0.215959 0.044526901
-0.40603799 0.215959 0.050115298
-0.285725 0.215959 0.045927301
-0.268538 0.215959 0.049580298
-0.42322499 0.319085 0.038496401
-0.40603799 0.30189699 0.042045198
-0.38885 0.30189699 0.042460799
-0.42322499 0.336272 0.043877199
-0.33728799 0.28470999 0.0416537
-0.285725 0.26752201 0.042638201
-0.37166199 0.30189699 0.0422634
-0.32010001 0.319085 0.051425699
-0.285725 0.319085 0.0396933
-0.268538 0.336272 0.046382502
-0.234163 0.095647 0.042222399
-0.216975 0.095647 0.048254099
-0.199788 0.095647 0.051546499
-0.18260001 0.095647 0.051466402
-0.199788 0.112835 0.041480601
-0.18260001 0.112835 0.0451218
-0.18260001 0.130022 0.037605502
-0.16541301 0.095647 0.048189599
-0.14822499 0.095647 0.041778199
-0.16541301 0.112835 0.044587199
-0.14822499 0.112835 0.040224198
-0.16541301 0.130022 0.0399215
-0.14822499 0.130022 0.037324298
-0.14822499 0.14721 0.035314102
-0.14822499 0.164397 0.041622899
-0.131038 0.164397 0.042624101
-0.131038 0.181584 0.045874201
-0.14822499 0.198772 0.051922001
-0.14822499 0.215959 0.050235301
-0.131038 0.198772 0.044223599
-0.11385 0.198772 0.037799999
-0.131038 0.215959 0.042220201
-0.11385 0.215959 0.038079001
-0.199788 0.25033501 0.0353125
-0.18260001 0.25033501 0.046449799
-0.14822499 0.233147 0.049502999
-0.16541301 0.25033501 0.050572
-0.14822499 0.25033501 0.048335601
-0.131038 0.233147 0.041602399
-0.11385 0.233147 0.037299301
-0.131038 0.25033501 0.0422098
-0.11385 0.25033501 0.0384873
-0.14822499 0.26752201 0.050344199
-0.14822499 0.28470999 0.049581099
-0.131038 0.26752201 0.043646801
-0.11385 0.26752201 0.037366301
-0.131038 0.28470999 0.042493001
-0.11385 0.28470999 0.0360898
-0.18260001 0.319085 0.050480999
-0.234163 0.336272 0.050841801
-0.216975 0.336272 0.0471965
-0.199788 0.336272 0.0441783
-0.18260001 0.336272 0.035574101
-0.16541301 0.30189699 0.051391501
-0.14822499 0.30189699 0.045782201
-0.16541301 0.319085 0.047308698
-0.14822499 0.319085 0.0442435
-0.131038 0.30189699 0.040332802
-0.11385 0.30189699 0.035587698
-0.131038 0.319085 0.0373105
-0.16541301 0.336272 0.036658701
-0.14822499 0.336272 0.0415367
-0.131038 0.336272 0.037083201
-0.131038 0.35346001 0.038306501
-0.096662499 0.233147 0.035523701
0.187269 -0.27001199 0.044764001
0.238414 -0.25837401 0.041290902
0.25568101 -0.253622 0.0420275
0.25288099 -0.233408 0.0358564
0.255797 -0.22251999 0.037411701
0.27360699 -0.18690699 0.037410099
-0.25134999 -0.26635 0.069527499
-0.25685999 -0.26528999 0.069527499
-0.32010001 -0.235201 0.069527499
-0.32487601 -0.23091599 0.069527499
-0.33728799 -0.21654999 0.069527499
-0.33905199 -0.213728 0.069527499
-0.34940901 -0.196541 0.069527499
-0.30291301 -0.249258 0.069527499
-0.304611 -0.24810299 0.069527499
-0.285725 -0.258591 0.069527499
-0.268538 -0.26346299 0.069527499
-0.234163 -0.26956201 0.069527499
-0.216975 -0.270722 0.069527499
-0.199788 -0.26985601 0.069527499
-0.18260001 -0.269447 0.069527499
-0.16541301 -0.26979601 0.069527499
-0.14822499 -0.27050301 0.069527499
-0.131038 -0.27142099 0.069527499
-0.11385 -0.27054501 0.069527499
-0.096662499 -0.26760101 0.069527499
-0.087270103 -0.26528999 0.069527499
-0.079475001 -0.26285201 0.069527499
-0.062287498 -0.257029 0.069527499
-0.0451 -0.248326 0.069527499
-0.044829998 -0.24810299 0.069527499
-0.027912499 -0.231704 0.069527499
-0.027119 -0.23091599 0.069527499
-0.0129519 -0.213728 0.069527499
-0.010725 -0.20995399 0.069527499
-0.0050545898 -0.196541 0.069527499
-0.35447499 -0.18400501 0.069527499
-0.355764 -0.179353 0.069527499
-0.36072299 -0.162165 0.069527499
-0.36253801 -0.144978 0.069527499
-0.36450201 -0.127791 0.069527499
-0.36427501 -0.110603 0.069527499
-0.36225599 -0.093415499 0.069527499
-0.35916701 -0.076228 0.069527499
-0.35447499 -0.0623626 0.069527499
-0.353852 -0.059040502 0.069527499
-0.347469 -0.041852999 0.069527499
-0.33830899 -0.024665499 0.069527499
-0.33728799 -0.022121601 0.069527499
-0.32857299 -0.0074780001 0.069527499
-0.32010001 0.0033772599 0.069527499
-0.315184 0.00970951 0.069527499
-0.30291301 0.0221397 0.069527499
-0.29694799 0.026897 0.069527499
-0.285725 0.034435298 0.069527499
-0.268538 0.043696299 0.069527499
-0.267564 0.044084501 0.069527499
-0.25134999 0.051672701 0.069527499
-0.14822499 -0.079301298 0.069527499
-0.156564 -0.076228 0.069527499
-0.16541301 -0.071640603 0.069527499
-0.179636 -0.059040502 0.069527499
-0.131038 -0.083383597 0.069527499
-0.11385 -0.085716598 0.069527499
0.00033586999 -0.179353 0.069527499
0.0023332201 -0.162165 0.069527499
0.00226539 -0.144978 0.069527499
0.0030749401 -0.127791 0.069527499
-0.096662499 -0.085922301 0.069527499
-0.079475001 -0.084690899 0.069527499
-0.062287498 -0.084202401 0.069527499
-0.0451 -0.084976003 0.069527499
0.00072473002 -0.110603 0.069527499
-0.00278836 -0.093415499 0.069527499
-0.027912499 -0.076734997 0.069527499
-0.0273648 -0.076228 0.069527499
-0.010725 -0.0728544 0.069527499
-0.0066013299 -0.076228 0.069527499
-0.18260001 -0.054739799 0.069527499
-0.188435 -0.041852999 0.069527499
-0.19273999 -0.024665499 0.069527499
-0.19355699 -0.0074780001 0.069527499
-0.193919 0.00970951 0.069527499
-0.19731601 0.026897 0.069527499
-0.199788 0.034213401 0.069527499
-0.20532399 0.044084501 0.069527499
-0.234163 0.057135601 0.069527499
-0.216975 0.053737301 0.069527499
0.109587 -0.24321599 0.069527499
0.092768103 -0.23091599 0.069527499
0.126775 -0.24059001 0.069527499
0.14396299 -0.232792 0.069527499
0.147222 -0.23091599 0.069527499
0.101524 -0.213728 0.069527499
0.109587 -0.209848 0.069527499
0.126775 -0.207026 0.069527499
0.16114999 -0.22733299 0.069527499
0.133187 -0.196541 0.069527499
0.19552501 -0.26534399 0.069527499
0.195463 -0.26528999 0.069527499
0.212712 -0.27230099 0.069527499
0.2299 -0.26872599 0.069527499
0.23717999 -0.26528999 0.069527499
0.18065999 -0.24810299 0.069527499
0.17833801 -0.244756 0.069527499
0.16885801 -0.23091599 0.069527499
0.247087 -0.26120499 0.069527499
0.26427501 -0.258329 0.069527499
0.28146201 -0.25996801 0.069527499
0.29865 -0.26145601 0.069527499
0.33302501 -0.26757199 0.069527499
0.325811 -0.26528999 0.069527499
0.35021299 -0.27254999 0.069527499
0.36739999 -0.270073 0.069527499
0.37539899 -0.26528999 0.069527499
0.31583801 -0.263318 0.069527499
0.384588 -0.257808 0.069527499
0.39558601 -0.24810299 0.069527499
0.401775 -0.242118 0.069527499
0.41073 -0.23091599 0.069527499
0.418962 -0.218523 0.069527499
0.421767 -0.213728 0.069527499
0.43098399 -0.196541 0.069527499
0.132734 -0.179353 0.069527499
0.134478 -0.162165 0.069527499
0.140366 -0.144978 0.069527499
0.14396299 -0.13795599 0.069527499
0.15140299 -0.127791 0.069527499
0.16114999 -0.119542 0.069527499
0.2299 -0.148197 0.069527499
0.226229 -0.144978 0.069527499
0.21656699 -0.127791 0.069527499
0.247087 -0.153264 0.069527499
0.26427501 -0.153965 0.069527499
0.28146201 -0.15417901 0.069527499
0.29865 -0.151161 0.069527499
0.17833801 -0.112276 0.069527499
0.19552501 -0.111154 0.069527499
0.212712 -0.120688 0.069527499
0.31376299 -0.144978 0.069527499
0.31583801 -0.14388201 0.069527499
0.33302501 -0.132479 0.069527499
0.33838299 -0.127791 0.069527499
0.43615001 -0.18443701 0.069527499
0.35021299 -0.116567 0.069527499
0.354893 -0.110603 0.069527499
0.36323401 -0.093415499 0.069527499
0.36739999 -0.081395097 0.069527499
0.36908799 -0.076228 0.069527499
0.374549 -0.059040502 0.069527499
0.43799001 -0.179353 0.069527499
0.44424999 -0.162165 0.069527499
0.45140499 -0.144978 0.069527499
0.45333701 -0.14000501 0.069527499
0.457582 -0.127791 0.069527499
0.46235999 -0.110603 0.069527499
0.465157 -0.093415499 0.069527499
0.465877 -0.076228 0.069527499
0.46447101 -0.059040502 0.069527499
0.37951899 -0.041852999 0.069527499
0.384588 -0.028134599 0.069527499
0.38604599 -0.024665499 0.069527499
0.39904201 -0.0074780001 0.069527499
0.401775 -0.0056353202 0.069527499
0.43615001 -0.0078045698 0.069527499
0.435637 -0.0074780001 0.069527499
0.418962 -0.00171724 0.069527499
0.46026099 -0.041852999 0.069527499
0.45333701 -0.0261242 0.069527499
0.45246899 -0.024665499 0.069527499
-0.440413 0.179141 0.069527499
-0.449175 0.181584 0.069527499
-0.42322499 0.175034 0.069527499
-0.40603799 0.169404 0.069527499
-0.38885 0.16485301 0.069527499
-0.44997299 0.198772 0.069527499
-0.440734 0.215959 0.069527499
-0.37166199 0.160303 0.069527499
-0.38726699 0.164397 0.069527499
-0.35447499 0.157924 0.069527499
-0.33728799 0.158282 0.069527499
-0.32010001 0.161182 0.069527499
-0.37166199 0.2145 0.069527499
-0.375732 0.215959 0.069527499
-0.35447499 0.210189 0.069527499
-0.33728799 0.208378 0.069527499
-0.32010001 0.204753 0.069527499
-0.30795199 0.164397 0.069527499
-0.30291301 0.16586199 0.069527499
-0.285725 0.171021 0.069527499
-0.268538 0.174922 0.069527499
-0.25134999 0.17680299 0.069527499
-0.30291301 0.203235 0.069527499
-0.285725 0.20618001 0.069527499
-0.268538 0.21067099 0.069527499
-0.253968 0.215959 0.069527499
-0.440413 0.220581 0.069527499
-0.42322499 0.231774 0.069527499
-0.40603799 0.227272 0.069527499
-0.38885 0.220414 0.069527499
-0.38885 0.308222 0.069527499
-0.40159601 0.319085 0.069527499
-0.40603799 0.33218101 0.069527499
-0.40725201 0.336272 0.069527499
-0.40603799 0.345213 0.069527499
-0.38885 0.34809399 0.069527499
-0.33728799 0.28338999 0.069527499
-0.33944899 0.28470999 0.069527499
-0.32010001 0.27524099 0.069527499
-0.25134999 0.217123 0.069527499
-0.285725 0.26279399 0.069527499
-0.300448 0.26752201 0.069527499
-0.30291301 0.268392 0.069527499
-0.268538 0.25769499 0.069527499
-0.25134999 0.25420401 0.069527499
-0.35447499 0.296085 0.069527499
-0.364802 0.30189699 0.069527499
-0.37166199 0.30401 0.069527499
-0.32010001 0.31100899 0.069527499
-0.330477 0.319085 0.069527499
-0.37166199 0.34692699 0.069527499
-0.35447499 0.343077 0.069527499
-0.33728799 0.325317 0.069527499
-0.34687901 0.336272 0.069527499
-0.285725 0.30130801 0.069527499
-0.28852299 0.30189699 0.069527499
-0.30291301 0.30438301 0.069527499
-0.268538 0.29990801 0.069527499
-0.25134999 0.29879999 0.069527499
-0.234163 0.177117 0.069527499
-0.216975 0.175227 0.069527499
-0.199788 0.17391101 0.069527499
-0.18672501 0.181584 0.069527499
-0.19218101 0.198772 0.069527499
-0.199788 0.207055 0.069527499
-0.208572 0.215959 0.069527499
-0.234163 0.222738 0.069527499
-0.216975 0.220823 0.069527499
-0.234163 0.254096 0.069527499
-0.216975 0.25745001 0.069527499
-0.199788 0.26668099 0.069527499
-0.198722 0.26752201 0.069527499
-0.195472 0.28470999 0.069527499
-0.234163 0.297589 0.069527499
-0.216975 0.297196 0.069527499
-0.199788 0.28896499 0.069527499
-0.268538 -0.26528999 0.063952297
-0.35447499 -0.196541 0.057768501
-0.16541301 -0.26528999 0.053223498
-0.14822499 -0.26528999 0.052827701
-0.079475001 -0.26528999 0.066137999
-0.062287498 -0.26528999 0.052592501
-0.37166199 -0.127791 0.052972302
-0.37166199 -0.110603 0.053061299
-0.35447499 -0.059040502 0.068483099
-0.35447499 -0.041852999 0.056209002
-0.33728799 -0.0074780001 0.058493301
-0.32010001 0.00970951 0.065106504
-0.30291301 0.026897 0.065845102
-0.285725 0.044084501 0.062942602
-0.268538 0.044084501 0.069292396
-0.268538 0.061271999 0.057433698
-0.25134999 0.061271999 0.063947998
-0.14822499 -0.076228 0.062984198
0.0064625102 -0.162165 0.059371199
0.0064625102 -0.144978 0.064394496
0.0064625102 -0.127791 0.0668412
0.02365 -0.127791 0.052705798
-0.096662499 -0.076228 0.058347601
-0.079475001 -0.076228 0.062515102
-0.062287498 -0.076228 0.064874202
-0.0451 -0.076228 0.065706
-0.062287498 -0.059040502 0.053000301
-0.0451 -0.059040502 0.058061801
0.0064625102 -0.110603 0.066388898
0.02365 -0.110603 0.055768099
0.0064625102 -0.093415499 0.064895198
0.02365 -0.093415499 0.056707699
-0.027912499 -0.076228 0.069211997
-0.027912499 -0.059040502 0.0611009
-0.010725 -0.059040502 0.062809102
0.0064625102 -0.076228 0.063129298
0.02365 -0.076228 0.0563116
0.0064625102 -0.059040502 0.060291
0.02365 -0.059040502 0.055900998
-0.18260001 -0.041852999 0.056707799
-0.18260001 -0.0074780001 0.053433701
-0.18260001 0.00970951 0.057405699
-0.18260001 0.026897 0.059725601
-0.199788 0.044084501 0.067891903
-0.18260001 0.044084501 0.060273498
-0.234163 0.061271999 0.067417197
-0.216975 0.061271999 0.066941001
-0.234163 0.078459501 0.0561551
-0.216975 0.078459501 0.0587712
-0.199788 0.061271999 0.0640845
-0.18260001 0.061271999 0.058760799
-0.199788 0.078459501 0.0587302
-0.18260001 0.078459501 0.055752601
-0.027912499 -0.041852999 0.055057999
-0.010725 -0.041852999 0.057416599
-0.010725 -0.024665499 0.053376101
0.0064625102 -0.041852999 0.057087399
0.02365 -0.041852999 0.054506999
0.0064625102 -0.024665499 0.054613899
0.02365 -0.024665499 0.052733
0.109587 -0.23091599 0.0527822
0.126775 -0.23091599 0.055189699
0.14396299 -0.23091599 0.067703798
0.16114999 -0.23091599 0.0546076
0.109587 -0.213728 0.058498502
0.126775 -0.213728 0.055170301
0.2299 -0.26528999 0.066312701
0.17833801 -0.24810299 0.065976597
0.31583801 -0.26528999 0.0549259
0.126775 -0.179353 0.052376602
0.2299 -0.144978 0.059529401
0.212712 -0.127791 0.065486804
0.35021299 -0.144978 0.052646201
0.36739999 -0.144978 0.053597599
0.35021299 -0.127791 0.056363899
0.36739999 -0.127791 0.0548237
0.43615001 -0.179353 0.062115099
0.36739999 -0.110603 0.052411601
0.45333701 -0.127791 0.057486899
0.384588 -0.024665499 0.066697702
0.401775 0.00970951 0.056431498
0.43615001 -0.0074780001 0.0691844
0.418962 0.00970951 0.0587526
0.45333701 -0.024665499 0.067962699
-0.4576 0.181584 0.058607001
-0.38885 0.164397 0.067354701
-0.440413 0.215959 0.068918198
-0.38885 0.215959 0.0569789
-0.30291301 0.164397 0.062836602
-0.40603799 0.319085 0.059434298
-0.33728799 0.28470999 0.066167302
-0.37166199 0.35346001 0.059480399
-0.285725 0.30189699 0.060362
-0.268538 0.30189699 0.065414399
-0.25134999 0.30189699 0.067022897
-0.268538 0.319085 0.056870501
-0.25134999 0.319085 0.063897297
-0.25134999 0.336272 0.054892998
-0.234163 0.181584 0.063587002
-0.216975 0.181584 0.060794499
-0.199788 0.181584 0.053061798
-0.18260001 0.181584 0.066939697
-0.18260001 0.198772 0.065482996
-0.199788 0.215959 0.067163996
-0.18260001 0.215959 0.061941698
-0.16541301 0.181584 0.059322
-0.14822499 0.181584 0.052413799
-0.16541301 0.198772 0.058131799
-0.16541301 0.215959 0.056456499
-0.199788 0.233147 0.059085999
-0.18260001 0.233147 0.056234501
-0.18260001 0.26752201 0.061671101
-0.18260001 0.28470999 0.063666701
-0.16541301 0.233147 0.053688001
-0.16541301 0.26752201 0.055591501
-0.16541301 0.28470999 0.056434501
-0.234163 0.30189699 0.066431798
-0.216975 0.30189699 0.066781901
-0.234163 0.319085 0.0626406
-0.216975 0.319085 0.060313601
-0.199788 0.30189699 0.063763402
-0.18260001 0.30189699 0.057580002
-0.199788 0.319085 0.056132399
0.152812 -0.228539 0.061007701
0.204119 -0.27004901 0.059215099
0.22382399 -0.26299599 0.055833202
-0.19159999 0.186551 0.061317101
0.23849399 -0.159191 0.086714998
0.232547 -0.15357199 0.086714998
0.247087 -0.159833 0.086714998
0.23177999 -0.144978 0.086714998
0.25568101 -0.159016 0.086714998
0.26427501 -0.158507 0.086714998
0.23298 -0.136384 0.086714998
0.232264 -0.127791 0.086714998
0.27286899 -0.157961 0.086714998
0.28146201 -0.15709201 0.086714998
-0.32010001 -0.22259 0.086714998
-0.32638699 -0.213728 0.086714998
-0.33728799 -0.19713899 0.086714998
-0.337616 -0.196541 0.086714998
-0.30291301 -0.23705401 0.086714998
-0.31111801 -0.23091599 0.086714998
-0.285725 -0.248071 0.086714998
-0.268538 -0.25477499 0.086714998
-0.28565499 -0.24810299 0.086714998
-0.25134999 -0.25823799 0.086714998
-0.234163 -0.26093099 0.086714998
-0.216975 -0.26314601 0.086714998
-0.199788 -0.26417801 0.086714998
-0.18260001 -0.26463199 0.086714998
-0.16541301 -0.264018 0.086714998
-0.14822499 -0.26317099 0.086714998
-0.131038 -0.261388 0.086714998
-0.11385 -0.25837201 0.086714998
-0.062287498 -0.265517 0.086714998
-0.0633993 -0.26528999 0.086714998
-0.0451 -0.26544401 0.086714998
-0.044500001 -0.26528999 0.086714998
-0.096662499 -0.25666201 0.086714998
-0.079475001 -0.25998101 0.086714998
-0.027912499 -0.25979799 0.086714998
-0.0134858 -0.24810299 0.086714998
-0.010725 -0.243884 0.086714998
-0.0041243401 -0.23091599 0.086714998
0.00085676002 -0.213728 0.086714998
0.00376856 -0.196541 0.086714998
-0.34454399 -0.179353 0.086714998
-0.35038599 -0.162165 0.086714998
-0.352281 -0.144978 0.086714998
-0.35378399 -0.127791 0.086714998
-0.35306099 -0.110603 0.086714998
-0.35006201 -0.093415499 0.086714998
-0.34564599 -0.076228 0.086714998
-0.33912301 -0.059040502 0.086714998
-0.33728799 -0.0537683 0.086714998
-0.33061099 -0.041852999 0.086714998
-0.32010001 -0.026770299 0.086714998
-0.31851301 -0.024665499 0.086714998
-0.30291301 -0.0105622 0.086714998
-0.29774001 -0.0074780001 0.086714998
-0.285725 -0.00227749 0.086714998
-0.268538 0.0047852099 0.086714998
-0.25134999 0.0073012998 0.086714998
-0.18260001 -0.067182504 0.086714998
-0.191383 -0.059040502 0.086714998
-0.131038 -0.096919 0.086714998
-0.139375 -0.093415499 0.086714998
-0.11385 -0.103168 0.086714998
-0.16541301 -0.079625703 0.086714998
-0.17038099 -0.076228 0.086714998
-0.14822499 -0.089613304 0.086714998
0.0038143401 -0.179353 0.086714998
0.00047028001 -0.162165 0.086714998
-0.00398135 -0.144978 0.086714998
-0.0085865902 -0.127791 0.086714998
-0.079475001 -0.116682 0.086714998
-0.094952099 -0.110603 0.086714998
-0.096662499 -0.109854 0.086714998
-0.062287498 -0.127304 0.086714998
-0.0451 -0.114397 0.086714998
-0.042920198 -0.110603 0.086714998
-0.010725 -0.120775 0.086714998
-0.0142494 -0.110603 0.086714998
-0.027912499 -0.100861 0.086714998
-0.199788 -0.048254199 0.086714998
-0.20343199 -0.041852999 0.086714998
-0.213762 -0.024665499 0.086714998
-0.216975 -0.019610601 0.086714998
-0.227974 -0.0074780001 0.086714998
-0.234163 -0.00192779 0.086714998
0.109587 -0.242837 0.086714998
0.093155399 -0.23091599 0.086714998
0.126775 -0.24327999 0.086714998
0.14396299 -0.243375 0.086714998
0.16114999 -0.244094 0.086714998
0.103878 -0.213728 0.086714998
0.109587 -0.212826 0.086714998
0.126775 -0.213145 0.086714998
0.14396299 -0.21137001 0.086714998
0.147615 -0.196541 0.086714998
0.2299 -0.27167299 0.086714998
0.213782 -0.26528999 0.086714998
0.247087 -0.27200401 0.086714998
0.26427501 -0.26838899 0.086714998
0.28025699 -0.26528999 0.086714998
0.17833801 -0.248469 0.086714998
0.17743701 -0.24810299 0.086714998
0.19552501 -0.25516099 0.086714998
0.212712 -0.264489 0.086714998
0.28146201 -0.265084 0.086714998
0.29865 -0.26328 0.086714998
0.33302501 -0.26649699 0.086714998
0.32821801 -0.26528999 0.086714998
0.35021299 -0.271153 0.086714998
0.36739999 -0.27080101 0.086714998
0.37817401 -0.26528999 0.086714998
0.31583801 -0.26347899 0.086714998
0.384588 -0.259408 0.086714998
0.39607599 -0.24810299 0.086714998
0.401775 -0.24257401 0.086714998
0.411093 -0.23091599 0.086714998
0.418962 -0.21946099 0.086714998
0.42258599 -0.213728 0.086714998
0.433236 -0.196541 0.086714998
0.14396299 -0.183467 0.086714998
0.1434 -0.179353 0.086714998
0.14396299 -0.16246 0.086714998
0.144015 -0.162165 0.086714998
0.149087 -0.144978 0.086714998
0.158309 -0.127791 0.086714998
0.16114999 -0.123697 0.086714998
0.29865 -0.15329599 0.086714998
0.17647301 -0.110603 0.086714998
0.17833801 -0.109539 0.086714998
0.19552501 -0.102496 0.086714998
0.2299 -0.11987 0.086714998
0.22481599 -0.110603 0.086714998
0.212712 -0.102825 0.086714998
0.2299 -0.015159 0.086714998
0.225455 -0.0074780001 0.086714998
0.22261 0.00970951 0.086714998
0.247087 -0.019008899 0.086714998
0.25225499 -0.0074780001 0.086714998
0.253176 0.00970951 0.086714998
0.225713 0.026897 0.086714998
0.22894 0.044084501 0.086714998
0.2299 0.047881 0.086714998
0.25334701 0.026897 0.086714998
0.251522 0.044084501 0.086714998
0.247087 0.052314699 0.086714998
0.31583801 -0.14569101 0.086714998
0.31709501 -0.144978 0.086714998
0.33302501 -0.133789 0.086714998
0.340193 -0.127791 0.086714998
0.43615001 -0.190997 0.086714998
0.35021299 -0.117063 0.086714998
0.35483101 -0.110603 0.086714998
0.364553 -0.093415499 0.086714998
0.36739999 -0.086475402 0.086714998
0.37131801 -0.076228 0.086714998
0.37798199 -0.059040502 0.086714998
0.44150901 -0.179353 0.086714998
0.44898301 -0.162165 0.086714998
0.45333701 -0.150454 0.086714998
0.45526701 -0.144978 0.086714998
0.46029601 -0.127791 0.086714998
0.46344399 -0.110603 0.086714998
0.46448299 -0.093415499 0.086714998
0.46287701 -0.076228 0.086714998
0.45855099 -0.059040502 0.086714998
0.384588 -0.0444718 0.086714998
0.38616499 -0.041852999 0.086714998
0.401775 -0.025134901 0.086714998
0.40252799 -0.024665499 0.086714998
0.43615001 -0.025378 0.086714998
0.43508101 -0.024665499 0.086714998
0.418962 -0.0201988 0.086714998
0.45333701 -0.045447599 0.086714998
0.45146701 -0.041852999 0.086714998
-0.42322499 0.179203 0.086714998
-0.42942199 0.181584 0.086714998
-0.40603799 0.17324699 0.086714998
-0.38885 0.168375 0.086714998
-0.440413 0.185193 0.086714998
-0.447537 0.198772 0.086714998
-0.44537601 0.215959 0.086714998
-0.37166199 0.16401701 0.086714998
-0.37321299 0.164397 0.086714998
-0.35447499 0.161495 0.086714998
-0.33728799 0.161952 0.086714998
-0.32010001 0.164196 0.086714998
-0.37166199 0.210417 0.086714998
-0.38230601 0.215959 0.086714998
-0.35447499 0.20710599 0.086714998
-0.33728799 0.20676 0.086714998
-0.32010001 0.200766 0.086714998
-0.31889701 0.164397 0.086714998
-0.30291301 0.16658901 0.086714998
-0.285725 0.168148 0.086714998
-0.268538 0.16875 0.086714998
-0.25134999 0.16898499 0.086714998
-0.30291301 0.198585 0.086714998
-0.31424201 0.198772 0.086714998
-0.301907 0.198772 0.086714998
-0.285725 0.201977 0.086714998
-0.268538 0.20329501 0.086714998
-0.25134999 0.20048399 0.086714998
-0.4576 0.229357 0.086714998
-0.46255901 0.233147 0.086714998
-0.4576 0.242865 0.086714998
-0.440413 0.24391 0.086714998
-0.42322499 0.237289 0.086714998
-0.40603799 0.229297 0.086714998
-0.41336799 0.233147 0.086714998
-0.38885 0.21940701 0.086714998
-0.38885 0.30825901 0.086714998
-0.396411 0.319085 0.086714998
-0.40292501 0.336272 0.086714998
-0.38885 0.346349 0.086714998
-0.35447499 0.28025499 0.086714998
-0.35969299 0.28470999 0.086714998
-0.33728799 0.26751301 0.086714998
-0.337309 0.26752201 0.086714998
-0.32010001 0.26683399 0.086714998
-0.30291301 0.265562 0.086714998
-0.285725 0.26124901 0.086714998
-0.268538 0.258488 0.086714998
-0.25134999 0.25951001 0.086714998
-0.37166199 0.29477099 0.086714998
-0.382258 0.30189699 0.086714998
-0.33728799 0.31675699 0.086714998
-0.340462 0.319085 0.086714998
-0.32010001 0.30587801 0.086714998
-0.35447499 0.32512501 0.086714998
-0.37047201 0.336272 0.086714998
-0.37166199 0.337329 0.086714998
-0.30291301 0.30059099 0.086714998
-0.30949199 0.30189699 0.086714998
-0.285725 0.29810899 0.086714998
-0.268538 0.29370499 0.086714998
-0.25134999 0.286428 0.086714998
-0.234163 0.17153899 0.086714998
-0.222124 0.181584 0.086714998
-0.234163 0.193717 0.086714998
-0.24546801 0.198772 0.086714998
-0.236865 0.26752201 0.086714998
-0.247172 0.28470999 0.086714998
-0.25134999 -0.26528999 0.0727235
-0.32010001 -0.23091599 0.077099599
-0.33728799 -0.213728 0.0728117
-0.30291301 -0.24810299 0.071718499
-0.285725 -0.24810299 0.086674497
-0.234163 -0.26528999 0.079884604
-0.216975 -0.26528999 0.083739899
-0.199788 -0.26528999 0.0850631
-0.18260001 -0.26528999 0.085694298
-0.16541301 -0.26528999 0.085115701
-0.14822499 -0.26528999 0.084297702
-0.131038 -0.26528999 0.0827903
-0.11385 -0.26528999 0.079438999
-0.096662499 -0.26528999 0.0731185
-0.062287498 -0.26528999 0.086540401
-0.0451 -0.26528999 0.086624697
-0.027912499 -0.24810299 0.081791401
-0.010725 -0.23091599 0.081741899
-0.010725 -0.213728 0.072356701
-0.35447499 -0.179353 0.072021499
-0.35447499 -0.162165 0.080681302
-0.35447499 -0.144978 0.0835758
-0.35447499 -0.127791 0.085886799
-0.35447499 -0.110603 0.085117899
-0.35447499 -0.093415499 0.081670798
-0.35447499 -0.076228 0.076543897
-0.33728799 -0.041852999 0.081696399
-0.33728799 -0.024665499 0.070890203
-0.32010001 -0.024665499 0.085794203
-0.32010001 -0.0074780001 0.076557599
-0.30291301 -0.0074780001 0.085169002
-0.30291301 0.00970951 0.076393999
-0.285725 0.00970951 0.082287297
-0.268538 0.00970951 0.085420303
-0.25134999 0.00970951 0.086116098
-0.285725 0.026897 0.073963098
-0.268538 0.026897 0.0785546
-0.25134999 0.026897 0.080767803
-0.25134999 0.044084501 0.073298097
-0.18260001 -0.059040502 0.075041398
-0.131038 -0.093415499 0.083055601
-0.11385 -0.093415499 0.078414097
-0.16541301 -0.076228 0.079808503
-0.079475001 -0.110603 0.083992898
-0.096662499 -0.093415499 0.075761102
-0.079475001 -0.093415499 0.074794002
-0.062287498 -0.110603 0.081331298
-0.0451 -0.110603 0.085049003
-0.062287498 -0.093415499 0.074246898
-0.0451 -0.093415499 0.074688397
-0.010725 -0.110603 0.082087301
-0.027912499 -0.093415499 0.081644103
-0.010725 -0.093415499 0.077345803
-0.010725 -0.076228 0.071428798
-0.199788 -0.041852999 0.083942503
-0.199788 -0.024665499 0.078128397
-0.216975 -0.0074780001 0.083613001
-0.234163 0.00970951 0.0839779
-0.216975 0.00970951 0.079782501
-0.199788 -0.0074780001 0.075001702
-0.199788 0.00970951 0.073032901
-0.234163 0.026897 0.079835102
-0.216975 0.026897 0.076258101
-0.234163 0.044084501 0.074466303
-0.216975 0.044084501 0.072089396
-0.199788 0.026897 0.070615202
0.16114999 -0.23091599 0.074508399
0.14396299 -0.196541 0.083648197
0.19552501 -0.26528999 0.069596402
0.212712 -0.26528999 0.085943498
0.247087 -0.26528999 0.074249297
0.26427501 -0.26528999 0.080764398
0.17833801 -0.24810299 0.086278297
0.14396299 -0.162165 0.086637303
0.14396299 -0.144978 0.0772385
0.2299 -0.144978 0.082229003
0.2299 -0.127791 0.083990201
0.17833801 -0.110603 0.077682301
0.19552501 -0.110603 0.070469901
0.212712 -0.110603 0.077775799
0.2299 -0.0074780001 0.081802703
0.2299 0.00970951 0.075405098
0.247087 -0.0074780001 0.082596198
0.247087 0.00970951 0.080171198
0.2299 0.026897 0.074753001
0.2299 0.044084501 0.073669501
0.247087 0.026897 0.078112997
0.247087 0.044084501 0.076042697
0.31583801 -0.144978 0.078424603
0.45333701 -0.144978 0.075555801
0.384588 -0.041852999 0.083643101
0.401775 -0.024665499 0.086304396
0.43615001 -0.024665499 0.086085901
0.401775 -0.0074780001 0.071207002
0.418962 -0.0074780001 0.074906997
0.45333701 -0.041852999 0.0840647
-0.440413 0.181584 0.076013498
-0.30291301 0.198772 0.084991299
-0.25134999 0.215959 0.073138297
-0.4576 0.233147 0.083196603
-0.440413 0.233147 0.073011503
-0.42322499 0.233147 0.0714975
-0.40603799 0.336272 0.073029302
-0.35447499 0.28470999 0.083681203
-0.33728799 0.26752201 0.086709604
-0.32010001 0.26752201 0.085124701
-0.30291301 0.26752201 0.073838398
-0.37166199 0.30189699 0.076186299
-0.33728799 0.319085 0.0805225
-0.35447499 0.336272 0.076157898
-0.30291301 0.30189699 0.082483798
-0.216975 0.181584 0.085234903
-0.199788 0.181584 0.078968197
-0.234163 0.198772 0.083958603
-0.216975 0.198772 0.078776397
-0.234163 0.215959 0.075110398
-0.216975 0.215959 0.071749203
-0.199788 0.198772 0.072393402
-0.234163 0.26752201 0.085570797
-0.216975 0.26752201 0.078322798
-0.234163 0.28470999 0.081345998
-0.216975 0.28470999 0.076832198
-0.199788 0.26752201 0.070082702
-0.199788 0.28470999 0.071362697
0.23668499 -0.15200201 0.081163503
0.25568101 -0.15691701 0.079840101
0.231365 -0.136384 0.085272796
0.27286899 -0.156341 0.079840101
0.23849399 -0.16467001 0.095308803
0.234365 -0.162165 0.095308803
0.247087 -0.16252901 0.095308803
0.249677 -0.162165 0.095308803
0.23357099 -0.15357199 0.095308803
0.23673099 -0.144978 0.095308803
0.25568101 -0.162044 0.095308803
0.26427501 -0.16160201 0.095308803
0.23849399 -0.13710301 0.095308803
0.238574 -0.136384 0.095308803
0.23861 -0.127791 0.095308803
0.27286899 -0.160032 0.095308803
0.28146201 -0.158518 0.095308803
0.23849399 -0.162165 0.092260599
0.247087 -0.162165 0.093269199
0.23849399 -0.136384 0.0951216
0.23849399 -0.127791 0.0950794
0.23849399 -0.168236 0.103903
0.23428901 -0.162165 0.103903
0.247087 -0.164575 0.103903
0.25568101 -0.16514 0.103903
0.26427501 -0.16511001 0.103903
0.23849399 -0.15685301 0.103903
0.239583 -0.15357199 0.103903
0.247087 -0.152343 0.103903
0.25456199 -0.144978 0.103903
0.247087 -0.144824 0.103903
0.24447 -0.136384 0.103903
0.245078 -0.127791 0.103903
0.27557299 -0.162165 0.103903
0.28146201 -0.160703 0.103903
0.27286899 -0.162974 0.103903
0.25568101 -0.162165 0.095924102
0.26427501 -0.162165 0.096843697
0.23849399 -0.15357199 0.102981
0.23849399 -0.144978 0.098309301
0.247087 -0.144978 0.103767
0.27286899 -0.162165 0.101817
-0.268538 -0.23969799 0.103903
-0.28270099 -0.23091599 0.103903
-0.25134999 -0.247098 0.103903
-0.30291301 -0.21401601 0.103903
-0.30316401 -0.213728 0.103903
-0.285725 -0.22892299 0.103903
-0.31461701 -0.196541 0.103903
-0.234163 -0.250561 0.103903
-0.247309 -0.24810299 0.103903
-0.216975 -0.25181299 0.103903
-0.199788 -0.24996901 0.103903
-0.190947 -0.24810299 0.103903
-0.18260001 -0.24661399 0.103903
-0.16541301 -0.242488 0.103903
-0.14822499 -0.23926701 0.103903
-0.131038 -0.24076501 0.103903
-0.11385 -0.245987 0.103903
-0.079475001 -0.26900199 0.103903
-0.084800303 -0.26528999 0.103903
-0.062287498 -0.273725 0.103903
-0.0451 -0.274454 0.103903
-0.027912499 -0.27317399 0.103903
-0.0123017 -0.26528999 0.103903
-0.096662499 -0.25502899 0.103903
-0.108722 -0.24810299 0.103903
-0.010725 -0.263607 0.103903
-0.00131673 -0.24810299 0.103903
0.0047757602 -0.23091599 0.103903
0.0064625102 -0.224088 0.103903
0.0086788498 -0.213728 0.103903
0.0093103601 -0.196541 0.103903
-0.32010001 -0.186783 0.103903
-0.323158 -0.179353 0.103903
-0.32742301 -0.162165 0.103903
-0.32987499 -0.144978 0.103903
-0.330277 -0.127791 0.103903
-0.32995099 -0.110603 0.103903
-0.32583299 -0.093415499 0.103903
-0.32010001 -0.081274398 0.103903
-0.31775799 -0.076228 0.103903
-0.30291301 -0.061486199 0.103903
-0.29832801 -0.059040502 0.103903
-0.285725 -0.053631499 0.103903
-0.268538 -0.047965601 0.103903
-0.25134999 -0.046561599 0.103903
-0.199788 -0.063499697 0.103903
-0.208314 -0.059040502 0.103903
-0.18260001 -0.073507898 0.103903
-0.14822499 -0.095740601 0.103903
-0.15174399 -0.093415499 0.103903
-0.11385 -0.120113 0.103903
-0.126546 -0.110603 0.103903
-0.131038 -0.107612 0.103903
-0.16541301 -0.0845038 0.103903
-0.178141 -0.076228 0.103903
-0.062287498 -0.17303699 0.103903
-0.074419901 -0.162165 0.103903
-0.0451 -0.17094 0.103903
-0.079475001 -0.156679 0.103903
-0.089196198 -0.144978 0.103903
-0.096662499 -0.136217 0.103903
-0.105149 -0.127791 0.103903
-0.040227901 -0.162165 0.103903
0.0064625102 -0.184431 0.103903
0.00426871 -0.179353 0.103903
-0.00371665 -0.162165 0.103903
-0.038000099 -0.144978 0.103903
-0.010725 -0.147054 0.103903
-0.0117581 -0.144978 0.103903
-0.027912499 -0.13139699 0.103903
-0.234163 -0.049842801 0.103903
-0.216975 -0.055194199 0.103903
0.075212501 -0.25589299 0.103903
0.074862801 -0.24810299 0.103903
0.092399999 -0.25217 0.103903
0.075212501 -0.247585 0.103903
0.080549903 -0.23091599 0.103903
0.091398597 -0.213728 0.103903
0.092399999 -0.213274 0.103903
0.109587 -0.248171 0.103903
0.109913 -0.24810299 0.103903
0.126775 -0.24657699 0.103903
0.16114999 -0.25058699 0.103903
0.151371 -0.24810299 0.103903
0.14396299 -0.247271 0.103903
0.126775 -0.217127 0.103903
0.110073 -0.213728 0.103903
0.109587 -0.213571 0.103903
0.14396299 -0.218766 0.103903
0.16114999 -0.21882799 0.103903
0.247087 -0.269005 0.103903
0.23810001 -0.26528999 0.103903
0.26427501 -0.27214199 0.103903
0.28146201 -0.27108201 0.103903
0.29865 -0.26895699 0.103903
0.17833801 -0.25597799 0.103903
0.19552501 -0.254758 0.103903
0.212712 -0.25003201 0.103903
0.2299 -0.259027 0.103903
0.17833801 -0.213976 0.103903
0.178846 -0.213728 0.103903
0.183322 -0.196541 0.103903
0.31583801 -0.26787499 0.103903
0.33302501 -0.26910499 0.103903
0.35021299 -0.27136099 0.103903
0.36739999 -0.268491 0.103903
0.373564 -0.26528999 0.103903
0.384588 -0.256919 0.103903
0.394903 -0.24810299 0.103903
0.401775 -0.24180201 0.103903
0.41123599 -0.23091599 0.103903
0.418962 -0.220404 0.103903
0.423428 -0.213728 0.103903
0.43490601 -0.196541 0.103903
0.16114999 -0.17504101 0.103903
0.15922999 -0.162165 0.103903
0.16114999 -0.146071 0.103903
0.17833801 -0.19321799 0.103903
0.163054 -0.179353 0.103903
0.16140801 -0.144978 0.103903
0.167573 -0.127791 0.103903
0.29865 -0.15559299 0.103903
0.17833801 -0.112285 0.103903
0.179967 -0.110603 0.103903
0.19552501 -0.097980998 0.103903
0.204081 -0.093415499 0.103903
0.212712 -0.089118198 0.103903
0.2299 -0.084392004 0.103903
0.24295799 -0.110603 0.103903
0.23833901 -0.093415499 0.103903
0.2299 -0.032901801 0.103903
0.227412 -0.024665499 0.103903
0.22604799 -0.0074780001 0.103903
0.229055 0.00970951 0.103903
0.247087 -0.0525904 0.103903
0.23215 -0.041852999 0.103903
0.26427501 -0.042182501 0.103903
0.26452899 -0.041852999 0.103903
0.26776001 -0.024665499 0.103903
0.26427501 -0.0014208 0.103903
0.261053 0.00970951 0.103903
0.26548201 -0.0074780001 0.103903
0.2299 0.0133779 0.103903
0.234531 0.026897 0.103903
0.25221199 0.026897 0.103903
0.247087 0.031261999 0.103903
0.31583801 -0.147039 0.103903
0.31919 -0.144978 0.103903
0.33302501 -0.13463999 0.103903
0.340624 -0.127791 0.103903
0.43615001 -0.1944 0.103903
0.35021299 -0.117114 0.103903
0.354945 -0.110603 0.103903
0.36596301 -0.093415499 0.103903
0.36739999 -0.0907102 0.103903
0.374823 -0.076228 0.103903
0.384588 -0.060112201 0.103903
0.38534701 -0.059040502 0.103903
0.44322699 -0.179353 0.103903
0.45023301 -0.162165 0.103903
0.45333701 -0.15256201 0.103903
0.45545799 -0.144978 0.103903
0.459025 -0.127791 0.103903
0.45995 -0.110603 0.103903
0.45831099 -0.093415499 0.103903
0.45422801 -0.076228 0.103903
0.45333701 -0.073355898 0.103903
0.44618201 -0.059040502 0.103903
0.401775 -0.044248302 0.103903
0.408144 -0.041852999 0.103903
0.43615001 -0.047930799 0.103903
0.424777 -0.041852999 0.103903
0.418962 -0.040918998 0.103903
-0.42322499 0.181288 0.103903
-0.423976 0.181584 0.103903
-0.40603799 0.176045 0.103903
-0.38885 0.171538 0.103903
-0.43956399 0.198772 0.103903
-0.43313199 0.215959 0.103903
-0.37166199 0.166848 0.103903
-0.35447499 0.164637 0.103903
-0.33728799 0.163816 0.103903
-0.34783301 0.164397 0.103903
-0.32010001 0.164387 0.103903
-0.37166199 0.208299 0.103903
-0.38663 0.215959 0.103903
-0.35447499 0.205015 0.103903
-0.32010001 0.194847 0.103903
-0.326294 0.198772 0.103903
-0.33728799 0.202794 0.103903
-0.32002199 0.164397 0.103903
-0.30291301 0.16673701 0.103903
-0.29212201 0.181584 0.103903
-0.30291301 0.186859 0.103903
-0.42322499 0.222378 0.103903
-0.40603799 0.22370701 0.103903
-0.38885 0.217471 0.103903
-0.38885 0.31444499 0.103903
-0.39156601 0.319085 0.103903
-0.39776301 0.336272 0.103903
-0.38885 0.34119001 0.103903
-0.35447499 0.27743399 0.103903
-0.365453 0.28470999 0.103903
-0.33728799 0.26922899 0.103903
-0.32010001 0.26916501 0.103903
-0.30291301 0.269456 0.103903
-0.285725 0.27015099 0.103903
-0.28159401 0.28470999 0.103903
-0.37166199 0.29078099 0.103903
-0.38231599 0.30189699 0.103903
-0.33728799 0.31312799 0.103903
-0.35284001 0.319085 0.103903
-0.32010001 0.30417401 0.103903
-0.37166199 0.32895201 0.103903
-0.37884799 0.336272 0.103903
-0.35447499 0.319563 0.103903
-0.30291301 0.296179 0.103903
-0.31585699 0.30189699 0.103903
-0.285725 0.28748599 0.103903
-0.32010001 -0.213728 0.092992403
-0.33728799 -0.196541 0.087091699
-0.32010001 -0.196541 0.101111
-0.30291301 -0.23091599 0.092891097
-0.285725 -0.23091599 0.102533
-0.268538 -0.24810299 0.095803797
-0.25134999 -0.24810299 0.102322
-0.18260001 -0.24810299 0.102937
-0.16541301 -0.24810299 0.100645
-0.14822499 -0.24810299 0.0989879
-0.131038 -0.24810299 0.098336302
-0.11385 -0.24810299 0.099748403
-0.079475001 -0.26528999 0.096772999
-0.027912499 -0.26528999 0.090080202
-0.010725 -0.24810299 0.088465601
0.0064625102 -0.213728 0.097083896
0.0064625102 -0.196541 0.0918153
-0.33728799 -0.179353 0.094878301
-0.33728799 -0.162165 0.098720104
-0.33728799 -0.144978 0.099826798
-0.33728799 -0.127791 0.10002
-0.33728799 -0.110603 0.099484801
-0.33728799 -0.093415499 0.0969899
-0.33728799 -0.076228 0.093379997
-0.32010001 -0.076228 0.102887
-0.33728799 -0.059040502 0.088258103
-0.32010001 -0.059040502 0.098127998
-0.30291301 -0.059040502 0.103166
-0.32010001 -0.041852999 0.092230603
-0.30291301 -0.041852999 0.097868502
-0.285725 -0.041852999 0.100312
-0.30291301 -0.024665499 0.092458799
-0.285725 -0.024665499 0.094977401
-0.268538 -0.041852999 0.101802
-0.25134999 -0.041852999 0.102104
-0.268538 -0.024665499 0.096111298
-0.25134999 -0.024665499 0.096283101
-0.285725 -0.0074780001 0.088796303
-0.268538 -0.0074780001 0.090415202
-0.25134999 -0.0074780001 0.091011398
-0.199788 -0.059040502 0.095464297
-0.14822499 -0.093415499 0.094539903
-0.11385 -0.110603 0.092188098
-0.062287498 -0.162165 0.092854299
-0.0451 -0.162165 0.098091401
-0.079475001 -0.144978 0.094611898
-0.096662499 -0.127791 0.096183501
-0.079475001 -0.127791 0.090285197
-0.062287498 -0.144978 0.090658098
-0.0451 -0.144978 0.097452201
-0.062287498 -0.127791 0.086884998
-0.0451 -0.127791 0.093202502
-0.010725 -0.144978 0.102718
-0.027912499 -0.127791 0.101767
-0.010725 -0.127791 0.091159999
-0.096662499 -0.110603 0.0871244
-0.027912499 -0.110603 0.0925088
-0.234163 -0.041852999 0.100061
-0.216975 -0.041852999 0.094522297
-0.234163 -0.024665499 0.093619302
-0.216975 -0.024665499 0.087989204
-0.234163 -0.0074780001 0.088355698
0.075212501 -0.24810299 0.101802
0.092399999 -0.24810299 0.096825697
0.092399999 -0.23091599 0.087832697
0.092399999 -0.213728 0.102265
0.109587 -0.24810299 0.103718
0.16114999 -0.24810299 0.094841503
0.126775 -0.213728 0.087900199
0.14396299 -0.213728 0.089425899
0.16114999 -0.213728 0.093803003
0.16114999 -0.196541 0.0946806
0.2299 -0.26528999 0.098348998
0.28146201 -0.26528999 0.087307297
0.29865 -0.26528999 0.094602503
0.17833801 -0.213728 0.103225
0.17833801 -0.196541 0.101832
0.31583801 -0.26528999 0.096723698
0.14396299 -0.179353 0.087420903
0.16114999 -0.179353 0.102733
0.16114999 -0.144978 0.103576
0.16114999 -0.127791 0.092688099
0.17833801 -0.110603 0.099500597
0.2299 -0.110603 0.091387399
0.212712 -0.093415499 0.098339103
0.2299 -0.093415499 0.10021
0.2299 -0.024665499 0.097160697
0.247087 -0.041852999 0.099546701
0.26427501 -0.041852999 0.10376
0.247087 -0.024665499 0.090544797
0.26427501 -0.024665499 0.099788897
0.26427501 -0.0074780001 0.101591
0.2299 0.026897 0.096722998
0.2299 0.044084501 0.088021599
0.247087 0.044084501 0.095038302
0.384588 -0.059040502 0.102703
0.45333701 -0.059040502 0.095800601
0.401775 -0.041852999 0.101924
0.43615001 -0.041852999 0.099757001
0.418962 -0.024665499 0.090612903
-0.440413 0.198772 0.102739
-0.440413 0.215959 0.0981673
-0.37166199 0.164397 0.088365696
-0.35447499 0.164397 0.102518
-0.32010001 0.198772 0.100394
-0.285725 0.181584 0.101596
-0.268538 0.181584 0.0980554
-0.25134999 0.181584 0.095126599
-0.285725 0.198772 0.090802804
-0.268538 0.198772 0.089814097
-0.25134999 0.198772 0.087693296
-0.4576 0.233147 0.100911
-0.440413 0.233147 0.099344499
-0.42322499 0.233147 0.096466199
-0.33728799 0.26752201 0.10307
-0.32010001 0.26752201 0.101523
-0.30291301 0.26752201 0.100763
-0.285725 0.26752201 0.101611
-0.268538 0.26752201 0.0987131
-0.25134999 0.26752201 0.092889398
-0.268538 0.28470999 0.0985412
-0.25134999 0.28470999 0.089473397
-0.37166199 0.336272 0.0882992
-0.234163 0.181584 0.090554498
0.269972 -0.162916 0.102074
0.28833801 -0.15704 0.095308803
0.236743 -0.121748 0.094715901
0.247087 -0.167835 0.112496
0.241422 -0.162165 0.112496
0.25568101 -0.170913 0.112496
0.25171801 -0.17075901 0.112496
0.257083 -0.17075901 0.112496
0.26427501 -0.169083 0.112496
0.27286899 -0.165769 0.112496
0.28146201 -0.162994 0.112496
0.244536 -0.15357199 0.112496
0.247087 -0.150511 0.112496
0.251459 -0.144978 0.112496
0.25568101 -0.14320999 0.112496
0.25977999 -0.136384 0.112496
0.25635999 -0.127791 0.112496
0.23849399 -0.162165 0.107844
0.25568101 -0.17075901 0.11218
0.28146201 -0.162165 0.109132
0.247087 -0.136384 0.105831
0.247087 -0.127791 0.105905
0.25568101 -0.136384 0.106606
0.25568101 -0.127791 0.111927
0.249401 -0.179353 0.12109
0.249964 -0.17075901 0.12109
0.257278 -0.179353 0.12109
0.26427501 -0.173996 0.12109
0.25343999 -0.162165 0.12109
0.27048799 -0.17075901 0.12109
0.27286899 -0.169475 0.12109
0.28146201 -0.16610201 0.12109
0.25568101 -0.158581 0.12109
0.257393 -0.15357199 0.12109
0.259785 -0.144978 0.12109
0.26118401 -0.136384 0.12109
0.26210099 -0.127791 0.12109
0.247087 -0.162165 0.116827
0.25568101 -0.179353 0.119608
0.26427501 -0.17075901 0.116167
0.247087 -0.15357199 0.117926
0.25568101 -0.15357199 0.115963
0.25568101 -0.144978 0.119297
-0.25134999 -0.24674401 0.12109
-0.26639 -0.23091599 0.12109
-0.285725 -0.196841 0.12109
-0.28584999 -0.196541 0.12109
-0.268538 -0.228209 0.12109
-0.277347 -0.213728 0.12109
-0.234163 -0.25443399 0.12109
-0.249661 -0.24810299 0.12109
-0.216975 -0.25449899 0.12109
-0.20291901 -0.24810299 0.12109
-0.199788 -0.24549501 0.12109
-0.183577 -0.23091599 0.12109
-0.18260001 -0.229747 0.12109
-0.131038 -0.23106501 0.12109
-0.13121501 -0.23091599 0.12109
-0.11385 -0.245006 0.12109
-0.16541301 -0.216628 0.12109
-0.14822499 -0.219317 0.12109
-0.079475001 -0.27283099 0.12109
-0.093349002 -0.26528999 0.12109
-0.062287498 -0.27404201 0.12109
-0.0451 -0.27373299 0.12109
-0.027912499 -0.273509 0.12109
-0.010725 -0.26615199 0.12109
-0.0098516298 -0.26528999 0.12109
-0.096662499 -0.26190701 0.12109
-0.110358 -0.24810299 0.12109
0.00201863 -0.24810299 0.12109
0.0064625102 -0.23720101 0.12109
0.0082219802 -0.23091599 0.12109
0.010425 -0.213728 0.12109
0.0064625102 -0.19691201 0.12109
0.00629503 -0.196541 0.12109
-0.28977001 -0.179353 0.12109
-0.28994101 -0.162165 0.12109
-0.285725 -0.14618801 0.12109
-0.28485799 -0.144978 0.12109
-0.269144 -0.127791 0.12109
-0.268538 -0.117326 0.12109
-0.26688999 -0.110603 0.12109
-0.257797 -0.093415499 0.12109
-0.25134999 -0.084517397 0.12109
-0.11385 -0.12797 0.12109
-0.114059 -0.127791 0.12109
-0.242475 -0.076228 0.12109
-0.234163 -0.071253099 0.12109
-0.216975 -0.0677149 0.12109
-0.18260001 -0.078531601 0.12109
-0.187544 -0.076228 0.12109
-0.199788 -0.071377099 0.12109
-0.14822499 -0.100767 0.12109
-0.15838701 -0.093415499 0.12109
-0.131038 -0.113508 0.12109
-0.13490701 -0.110603 0.12109
-0.16541301 -0.088561997 0.12109
-0.079475001 -0.162967 0.12109
-0.080209099 -0.162165 0.12109
-0.062287498 -0.178872 0.12109
-0.0451 -0.178929 0.12109
-0.096342601 -0.144978 0.12109
-0.096662499 -0.14465 0.12109
-0.027912499 -0.166557 0.12109
-0.010725 -0.168735 0.12109
-0.0024569 -0.179353 0.12109
0.092399999 -0.24974 0.12109
0.089174204 -0.24810299 0.12109
0.084764399 -0.23091599 0.12109
0.092399999 -0.21869101 0.12109
0.109587 -0.25034899 0.12109
0.126775 -0.249228 0.12109
0.14396299 -0.25093201 0.12109
0.16114999 -0.25499201 0.12109
0.109587 -0.21618301 0.12109
0.126775 -0.218935 0.12109
0.14396299 -0.220869 0.12109
0.16114999 -0.221388 0.12109
0.28146201 -0.269449 0.12109
0.267037 -0.26528999 0.12109
0.29865 -0.27137101 0.12109
0.17833801 -0.259413 0.12109
0.19552501 -0.25942001 0.12109
0.21041401 -0.24810299 0.12109
0.212712 -0.24432901 0.12109
0.220075 -0.23091599 0.12109
0.17833801 -0.214682 0.12109
0.17954201 -0.213728 0.12109
0.190556 -0.196541 0.12109
0.2299 -0.221441 0.12109
0.247087 -0.250413 0.12109
0.24507099 -0.24810299 0.12109
0.26427501 -0.26397601 0.12109
0.232995 -0.23091599 0.12109
0.31583801 -0.27143201 0.12109
0.33302501 -0.270735 0.12109
0.35021299 -0.26867399 0.12109
0.361301 -0.26528999 0.12109
0.36739999 -0.26216799 0.12109
0.384588 -0.250927 0.12109
0.388735 -0.24810299 0.12109
0.401775 -0.237679 0.12109
0.40824899 -0.23091599 0.12109
0.418962 -0.21752501 0.12109
0.42174199 -0.213728 0.12109
0.432928 -0.196541 0.12109
0.192818 -0.179353 0.12109
0.18629199 -0.162165 0.12109
0.18026701 -0.144978 0.12109
0.182227 -0.127791 0.12109
0.29280099 -0.162165 0.12109
0.29865 -0.159325 0.12109
0.19000199 -0.110603 0.12109
0.19552501 -0.10214 0.12109
0.202931 -0.093415499 0.12109
0.212712 -0.081185699 0.12109
0.21556801 -0.076228 0.12109
0.219347 -0.059040502 0.12109
0.26087001 -0.110603 0.12109
0.262869 -0.093415499 0.12109
0.26427501 -0.089623801 0.12109
0.27308699 -0.076228 0.12109
0.28104299 -0.059040502 0.12109
0.2184 -0.041852999 0.12109
0.222872 -0.024665499 0.12109
0.2299 -0.0140366 0.12109
0.28146201 -0.057060398 0.12109
0.28169701 -0.041852999 0.12109
0.28146201 -0.0403536 0.12109
0.27681899 -0.024665499 0.12109
0.23459899 -0.0074780001 0.12109
0.247087 0.0056220298 0.12109
0.26427501 -0.00123769 0.12109
0.26810399 -0.0074780001 0.12109
0.31583801 -0.14949299 0.12109
0.32295701 -0.144978 0.12109
0.33302501 -0.13703001 0.12109
0.34282601 -0.127791 0.12109
0.43615001 -0.19045299 0.12109
0.35021299 -0.119743 0.12109
0.35785899 -0.110603 0.12109
0.36739999 -0.098107003 0.12109
0.370601 -0.093415499 0.12109
0.384588 -0.077343099 0.12109
0.38580501 -0.076228 0.12109
0.401775 -0.067010097 0.12109
0.43615001 -0.076766603 0.12109
0.43573701 -0.076228 0.12109
0.418962 -0.065929301 0.12109
0.440972 -0.179353 0.12109
0.44699299 -0.162165 0.12109
0.45113999 -0.144978 0.12109
0.452696 -0.127791 0.12109
0.45136899 -0.110603 0.12109
0.44612199 -0.093415499 0.12109
-0.42322499 0.179755 0.12109
-0.42665699 0.181584 0.12109
-0.40603799 0.174529 0.12109
-0.38885 0.170444 0.12109
-0.430839 0.198772 0.12109
-0.42322499 0.20661099 0.12109
-0.40603799 0.213636 0.12109
-0.38885 0.211907 0.12109
-0.35447499 0.163076 0.12109
-0.36498699 0.164397 0.12109
-0.37166199 0.165961 0.12109
-0.34744501 0.164397 0.12109
-0.34419701 0.181584 0.12109
-0.35447499 0.194259 0.12109
-0.36105001 0.198772 0.12109
-0.37166199 0.20394801 0.12109
-0.268538 -0.23091599 0.114198
-0.30291301 -0.213728 0.104024
-0.285725 -0.213728 0.112382
-0.30291301 -0.196541 0.109507
-0.199788 -0.24810299 0.1057
-0.18260001 -0.23091599 0.117723
-0.16541301 -0.23091599 0.10903
