# .PCD v0.7 - Point Cloud Data file format
VERSION 0.7
FIELDS x y z
SIZE 4 4 4
TYPE F F F
COUNT 1 1 1
WIDTH 1519
HEIGHT 1
VIEWPOINT 0 0 0 1 0 0 0
POINTS 1519
DATA ascii
-0.21619301 0.133434 0.164581
-0.19900601 0.133434 0.164308
-0.21619301 0.150621 0.166775
-0.19900601 0.150621 0.16750801
-0.18181799 0.099058598 0.162398
-0.18181799 0.116246 0.164353
-0.16463099 0.116246 0.164096
-0.18181799 0.133434 0.16631299
-0.16463099 0.133434 0.167097
-0.18181799 0.150621 0.168281
-0.16463099 0.150621 0.16884901
-0.147443 0.133434 0.162635
-0.147443 0.150621 0.165819
-0.233381 0.16780899 0.162705
-0.250568 0.18499599 0.16200601
-0.233381 0.18499599 0.164179
-0.21619301 0.16780899 0.16881301
-0.19900601 0.16780899 0.17013
-0.21619301 0.18499599 0.17039201
-0.19900601 0.18499599 0.172519
-0.250568 0.20218401 0.165187
-0.233381 0.20218401 0.16606399
-0.250568 0.21937101 0.168207
-0.233381 0.21937101 0.16910601
-0.21619301 0.20218401 0.172097
-0.19900601 0.20218401 0.174859
-0.21619301 0.21937101 0.174722
-0.19900601 0.21937101 0.17821801
-0.18181799 0.16780899 0.17043
-0.16463099 0.16780899 0.171554
-0.18181799 0.18499599 0.17316499
-0.16463099 0.18499599 0.175026
-0.147443 0.16780899 0.170206
-0.130256 0.16780899 0.163186
-0.147443 0.18499599 0.17359
-0.130256 0.18499599 0.16688301
-0.18181799 0.20218401 0.175492
-0.16463099 0.20218401 0.17793299
-0.18181799 0.21937101 0.17783201
-0.147443 0.20218401 0.177031
-0.130256 0.20218401 0.170716
-0.0615055 0.099058598 0.164966
-0.0615055 0.116246 0.162784
-0.0615055 0.133434 0.16172101
-0.078693002 0.150621 0.16332901
-0.0615055 0.150621 0.16511799
-0.044318002 0.099058598 0.165243
-0.027130499 0.099058598 0.16598301
-0.044318002 0.116246 0.16421901
-0.027130499 0.116246 0.166822
-0.0099430103 0.099058598 0.168065
0.0072444701 0.099058598 0.17029899
-0.0099430103 0.116246 0.169093
0.0072444701 0.116246 0.172058
-0.044318002 0.133434 0.165787
-0.027130499 0.133434 0.167861
-0.044318002 0.150621 0.16920801
-0.027130499 0.150621 0.16836099
-0.0099430103 0.133434 0.16728801
0.0072444701 0.133434 0.168166
-0.0099430103 0.150621 0.164451
0.0072444701 0.150621 0.164593
-0.095880501 0.16780899 0.162347
-0.113068 0.18499599 0.161704
-0.095880501 0.18499599 0.163709
-0.078693002 0.16780899 0.167236
-0.0615055 0.16780899 0.169697
-0.078693002 0.18499599 0.169717
-0.0615055 0.18499599 0.173559
-0.113068 0.20218401 0.16429099
-0.095880501 0.20218401 0.16463199
-0.113068 0.21937101 0.169918
-0.095880501 0.21937101 0.167612
-0.078693002 0.20218401 0.168741
-0.0615055 0.20218401 0.173389
-0.078693002 0.21937101 0.17057601
-0.0615055 0.21937101 0.171964
-0.044318002 0.16780899 0.173141
-0.027130499 0.16780899 0.171639
-0.044318002 0.18499599 0.17639001
-0.027130499 0.18499599 0.176116
-0.0099430103 0.16780899 0.166173
0.0072444701 0.16780899 0.16642199
-0.0099430103 0.18499599 0.171313
0.0072444701 0.18499599 0.16974699
-0.044318002 0.20218401 0.176737
-0.027130499 0.20218401 0.17630699
-0.044318002 0.21937101 0.173916
-0.027130499 0.21937101 0.17533199
-0.0099430103 0.20218401 0.174119
0.0072444701 0.20218401 0.17460699
-0.0099430103 0.21937101 0.176434
-0.319318 0.236559 0.16246501
-0.302131 0.236559 0.16565
-0.319318 0.253746 0.16244701
-0.302131 0.253746 0.166216
-0.28494301 0.236559 0.167895
-0.26775599 0.236559 0.170241
-0.28494301 0.253746 0.16988599
-0.26775599 0.253746 0.172554
-0.319318 0.27093399 0.161929
-0.302131 0.27093399 0.166906
-0.319318 0.28812101 0.161651
-0.302131 0.28812101 0.16684499
-0.28494301 0.27093399 0.171083
-0.26775599 0.27093399 0.173793
-0.28494301 0.28812101 0.17094401
-0.26775599 0.28812101 0.17407
-0.302131 0.305309 0.16456801
-0.28494301 0.305309 0.169099
-0.26775599 0.305309 0.17279001
-0.28494301 0.322496 0.16460501
-0.26775599 0.322496 0.169425
-0.26775599 0.33968401 0.163709
-0.250568 0.236559 0.17168801
-0.233381 0.236559 0.171958
-0.250568 0.253746 0.17444199
-0.233381 0.253746 0.174859
-0.21619301 0.236559 0.17673001
-0.21619301 0.253746 0.178296
-0.250568 0.27093399 0.17584699
-0.233381 0.27093399 0.177211
-0.250568 0.28812101 0.17613
-0.233381 0.28812101 0.178258
-0.250568 0.305309 0.17585599
-0.250568 0.322496 0.17375199
-0.233381 0.322496 0.17715199
-0.250568 0.33968401 0.168634
-0.233381 0.33968401 0.173366
-0.250568 0.35687101 0.16121399
-0.233381 0.35687101 0.166243
-0.21619301 0.33968401 0.177075
-0.21619301 0.35687101 0.17087001
-0.19900601 0.35687101 0.175228
-0.095880501 0.236559 0.174989
-0.078693002 0.236559 0.17325699
-0.0615055 0.236559 0.17336801
-0.044318002 0.236559 0.17397
-0.027130499 0.236559 0.17670301
-0.19900601 0.37405899 0.16578101
-0.18181799 0.37405899 0.17051899
-0.16463099 0.37405899 0.174234
-0.147443 0.37405899 0.177623
-0.147443 0.39124599 0.165769
-0.130256 0.39124599 0.168764
-0.113068 0.39124599 0.170918
-0.095880501 0.39124599 0.173236
-0.078693002 0.39124599 0.175064
-0.0615055 0.39124599 0.17711499
-0.044318002 0.408434 0.16207901
-0.027130499 0.408434 0.162965
-0.0099430103 0.408434 0.164114
0.0072444701 0.408434 0.164434
0.024431899 0.0303085 0.170192
0.041619498 0.0303085 0.17351501
0.024431899 0.047495998 0.16982201
0.041619498 0.047495998 0.17205
0.058807001 0.0303085 0.17660099
0.058807001 0.047495998 0.17386
0.075994499 0.047495998 0.176424
0.024431899 0.064683601 0.17194299
0.041619498 0.064683601 0.173032
0.024431899 0.081871003 0.171409
0.041619498 0.081871003 0.17337801
0.058807001 0.064683601 0.17456
0.075994499 0.064683601 0.176157
0.058807001 0.081871003 0.17659201
0.093181998 0.064683601 0.178197
0.024431899 0.099058598 0.172662
0.041619498 0.099058598 0.174164
0.024431899 0.116246 0.175319
0.041619498 0.116246 0.17697001
0.058807001 0.099058598 0.176027
0.058807001 0.116246 0.17781299
0.024431899 0.133434 0.171267
0.041619498 0.133434 0.176615
0.024431899 0.150621 0.167137
0.041619498 0.150621 0.173021
0.024431899 0.16780899 0.16901299
0.041619498 0.16780899 0.171939
0.024431899 0.18499599 0.17250299
0.041619498 0.18499599 0.17505801
0.024431899 0.20218401 0.17744
0.368182 -0.038441502 0.177945
0.385369 -0.038441502 0.16754401
0.385369 -0.021253901 0.173151
0.40255699 -0.021253901 0.16225199
0.385369 -0.0040664701 0.17760199
0.40255699 -0.0040664701 0.166825
0.40255699 0.0131211 0.171249
0.40255699 0.0303085 0.17568099
0.41974401 0.0303085 0.164793
0.41974401 0.047495998 0.16989601
0.41974401 0.064683601 0.17375
0.41974401 0.081871003 0.177047
0.436932 0.064683601 0.162701
0.436932 0.081871003 0.16630401
0.436932 0.099058598 0.17012499
0.436932 0.116246 0.1736
0.436932 0.133434 0.17620499
0.45412001 0.133434 0.164781
0.45412001 0.150621 0.166408
0.45412001 0.16780899 0.16821501
0.45412001 0.18499599 0.167574
0.436932 0.20218401 0.178177
0.45412001 0.20218401 0.162311
0.436932 0.21937101 0.173179
0.265057 0.35687101 0.172773
0.28224501 0.35687101 0.163139
0.024431899 0.408434 0.163519
0.041619498 0.408434 0.16266499
0.058807001 0.408434 0.161272
0.093181998 0.39124599 0.17776
0.110369 0.39124599 0.175826
0.12755699 0.39124599 0.173072
0.14474399 0.39124599 0.168299
0.16193201 0.39124599 0.162508
0.196307 0.37405899 0.176567
0.213494 0.37405899 0.170635
0.230682 0.37405899 0.164318
0.41974401 0.253746 0.170111
0.385369 0.28812101 0.173558
0.40255699 0.27093399 0.17441501
0.33380699 0.322496 0.17642701
0.35099399 0.322496 0.16376901
0.29943201 0.33968401 0.17783201
0.31661901 0.33968401 0.165047
0.368182 0.305309 0.171212
0.436932 0.236559 0.165089
-0.078693002 -0.44160599 0.195484
-0.086405396 -0.433754 0.195484
-0.0615055 -0.445003 0.195484
-0.090056203 -0.41656601 0.195484
-0.089519501 -0.39937899 0.195484
-0.044318002 -0.44773901 0.195484
-0.027130499 -0.444745 0.195484
-0.0099430103 -0.435173 0.195484
-0.0070159398 -0.433754 0.195484
0.00187814 -0.41656601 0.195484
0.00115472 -0.39937899 0.195484
-0.086680099 -0.382191 0.195484
-0.086507402 -0.365004 0.195484
-0.086043499 -0.34781599 0.195484
-0.0837605 -0.33062899 0.195484
0.0024794899 -0.382191 0.195484
0.0054344502 -0.365004 0.195484
0.0072444701 -0.35801899 0.195484
-0.16463099 -0.26432401 0.195484
-0.170323 -0.261879 0.195484
-0.147443 -0.26852399 0.195484
-0.130256 -0.268401 0.195484
-0.19900601 -0.24504 0.195484
-0.199378 -0.244691 0.195484
-0.214028 -0.227504 0.195484
-0.21619301 -0.224149 0.195484
-0.222657 -0.210316 0.195484
-0.224801 -0.193129 0.195484
-0.18181799 -0.25747001 0.195484
-0.081947997 -0.31344101 0.195484
-0.079203799 -0.29625401 0.195484
-0.113068 -0.26950699 0.195484
-0.095880501 -0.26896399 0.195484
-0.078693002 -0.29337299 0.195484
-0.078629702 -0.279066 0.195484
-0.078693002 -0.278676 0.195484
-0.233381 -0.162273 0.195484
-0.23536099 -0.15875401 0.195484
-0.22769199 -0.17594101 0.195484
-0.246794 -0.14156599 0.195484
-0.250568 -0.136269 0.195484
-0.25622901 -0.124379 0.195484
-0.25643599 -0.107191 0.195484
-0.250568 -0.096637003 0.195484
-0.244196 -0.090003997 0.195484
-0.233381 -0.081320502 0.195484
-0.21668001 -0.072816402 0.195484
-0.21619301 -0.072660998 0.195484
-0.19900601 -0.067288198 0.195484
-0.18185499 -0.055629 0.195484
0.0119176 -0.34781599 0.195484
0.016282 -0.33062899 0.195484
0.0157403 -0.31344101 0.195484
0.024431899 -0.300486 0.195484
0.041619498 -0.29967299 0.195484
0.058807001 -0.29878199 0.195484
0.075994499 -0.29840299 0.195484
0.093181998 -0.29779699 0.195484
0.102347 -0.29625401 0.195484
0.110369 -0.29438499 0.195484
0.12755699 -0.289105 0.195484
0.14474399 -0.28105399 0.195484
0.148204 -0.279066 0.195484
0.16193201 -0.26744601 0.195484
0.165722 -0.261879 0.195484
0.17911901 -0.25125101 0.195484
0.19408999 -0.244691 0.195484
0.196307 -0.24315301 0.195484
0.213494 -0.23025399 0.195484
0.218999 -0.227504 0.195484
0.230682 -0.22126 0.195484
0.247869 -0.211134 0.195484
0.249376 -0.210316 0.195484
0.265057 -0.19647001 0.195484
0.26768199 -0.193129 0.195484
0.27761099 -0.17594101 0.195484
0.28224501 -0.16841701 0.195484
0.29943201 -0.162423 0.195484
0.30886 -0.15875401 0.195484
0.316111 -0.14156599 0.195484
0.31661901 -0.137621 0.195484
0.31837299 -0.124379 0.195484
0.32325399 -0.107191 0.195484
0.32659701 -0.090003997 0.195484
0.322707 -0.072816402 0.195484
0.320234 -0.055629 0.195484
-0.18181799 -0.055359099 0.195484
-0.16463099 -0.0408624 0.195484
-0.16012301 -0.038441502 0.195484
-0.147443 -0.033926401 0.195484
-0.130256 -0.03005 0.195484
-0.113068 -0.0297326 0.195484
-0.095880501 -0.0294821 0.195484
-0.078693002 -0.030408001 0.195484
-0.0615055 -0.0292497 0.195484
-0.044318002 -0.031546898 0.195484
-0.027130499 -0.035195399 0.195484
-0.0099430103 -0.028890099 0.195484
-0.00083679002 -0.021253901 0.195484
0.0072444701 -0.0180168 0.195484
-0.147443 0.292292 0.195484
-0.15684099 0.305309 0.195484
-0.130256 0.29226899 0.195484
-0.147443 0.31639001 0.195484
-0.138437 0.322496 0.195484
-0.130256 0.32750499 0.195484
-0.095880501 0.27361801 0.195484
-0.105026 0.28812101 0.195484
-0.078693002 0.269355 0.195484
-0.090999097 0.27093399 0.195484
-0.0615055 0.26978001 0.195484
-0.044318002 0.26969501 0.195484
-0.027130499 0.26551899 0.195484
-0.0099430103 0.26256299 0.195484
0.0072444701 0.25872299 0.195484
-0.113068 0.29314801 0.195484
-0.113068 0.337488 0.195484
-0.10814 0.33968401 0.195484
-0.095880501 0.34345901 0.195484
-0.078693002 0.349374 0.195484
-0.0615055 0.35520899 0.195484
-0.0533414 0.35687101 0.195484
-0.044318002 0.359135 0.195484
-0.027130499 0.361485 0.195484
-0.0099430103 0.36269599 0.195484
0.0072444701 0.36484301 0.195484
0.024431899 -0.0144932 0.195484
0.041619498 -0.0109254 0.195484
0.058807001 -0.0058422098 0.195484
0.063863598 -0.0040664701 0.195484
0.075994499 3.3619999e-05 0.195484
0.093181998 0.00329727 0.195484
0.110369 0.0040503098 0.195484
0.12755699 0.0034950399 0.195484
0.14474399 0.0020087401 0.195484
0.16193201 0.0031015901 0.195484
0.17911901 0.0082485704 0.195484
0.191741 0.0131211 0.195484
0.196307 0.0159592 0.195484
0.208344 0.0303085 0.195484
0.213494 0.037383899 0.195484
0.226427 0.047495998 0.195484
0.230682 0.051449999 0.195484
0.23597901 0.064683601 0.195484
0.23738199 0.081871003 0.195484
0.075994499 0.203822 0.195484
0.061836701 0.21937101 0.195484
0.12755699 0.173535 0.195484
0.115974 0.18499599 0.195484
0.135351 0.18499599 0.195484
0.110369 0.199195 0.195484
0.10856 0.20218401 0.195484
0.093181998 0.20293 0.195484
0.138017 0.20218401 0.195484
0.14474399 0.216463 0.195484
0.213494 0.138502 0.195484
0.20914599 0.150621 0.195484
0.240575 0.099058598 0.195484
0.236359 0.116246 0.195484
0.230682 0.117451 0.195484
0.21486799 0.133434 0.195484
0.20186999 0.16780899 0.195484
0.196307 0.175304 0.195484
0.18720099 0.18499599 0.195484
0.17911901 0.197493 0.195484
0.175253 0.20218401 0.195484
0.16193201 0.21574099 0.195484
0.327885 -0.038441502 0.195484
0.33380699 -0.025751499 0.195484
0.33548701 -0.021253901 0.195484
0.33991301 -0.0040664701 0.195484
0.34571001 0.0131211 0.195484
0.35093901 0.0303085 0.195484
0.35099399 0.030856701 0.195484
0.35517901 0.047495998 0.195484
0.364564 0.064683601 0.195484
0.368182 0.070992202 0.195484
0.376479 0.081871003 0.195484
0.385369 0.095864899 0.195484
0.386628 0.099058598 0.195484
0.39362299 0.116246 0.195484
0.39853901 0.133434 0.195484
0.40255699 0.14995401 0.195484
0.402733 0.150621 0.195484
0.406975 0.16780899 0.195484
0.40801999 0.18499599 0.195484
0.40533599 0.20218401 0.195484
0.40255699 0.215415 0.195484
0.40147299 0.21937101 0.195484
0.024431899 0.25045699 0.195484
0.0172706 0.253746 0.195484
0.041619498 0.239977 0.195484
0.058807001 0.222234 0.195484
0.044846199 0.236559 0.195484
0.16193201 0.35640499 0.195484
0.159107 0.35687101 0.195484
0.17911901 0.355555 0.195484
0.196307 0.352862 0.195484
0.213494 0.348106 0.195484
0.247869 0.33905199 0.195484
0.245281 0.33968401 0.195484
0.230682 0.34362 0.195484
0.265057 0.333312 0.195484
0.28224501 0.32565299 0.195484
0.024431899 0.36201599 0.195484
0.041619498 0.36062801 0.195484
0.058807001 0.36062399 0.195484
0.075994499 0.359788 0.195484
0.093181998 0.35968599 0.195484
0.110369 0.361586 0.195484
0.12755699 0.361844 0.195484
0.14474399 0.35911199 0.195484
0.35099399 0.283995 0.195484
0.34517699 0.28812101 0.195484
0.385369 0.24839801 0.195484
0.38162899 0.253746 0.195484
0.39339101 0.236559 0.195484
0.368182 0.268953 0.195484
0.36599499 0.27093399 0.195484
0.29943201 0.31767499 0.195484
0.289671 0.322496 0.195484
0.31661901 0.30705699 0.195484
0.33380699 0.29664499 0.195484
0.319985 0.305309 0.195484
-0.095880501 -0.41656601 0.18291
-0.095880501 -0.39937899 0.18412399
0.0072444701 -0.41656601 0.1864
0.0072444701 -0.39937899 0.189265
-0.095880501 -0.365004 0.18085501
-0.095880501 -0.34781599 0.18364701
-0.095880501 -0.33062899 0.183962
0.0072444701 -0.382191 0.190331
0.0072444701 -0.365004 0.19399799
-0.26775599 -0.14156599 0.179722
-0.26775599 -0.124379 0.186612
-0.26775599 -0.107191 0.18856101
-0.26775599 -0.090003997 0.182916
-0.26775599 -0.055629 0.17900001
-0.19900601 -0.261879 0.17858
-0.16463099 -0.279066 0.181328
-0.18181799 -0.261879 0.191782
-0.147443 -0.279066 0.185
-0.130256 -0.279066 0.186206
-0.21619301 -0.227504 0.19246
-0.233381 -0.210316 0.18262599
-0.233381 -0.193129 0.188402
-0.095880501 -0.31344101 0.184738
-0.113068 -0.29625401 0.181168
-0.095880501 -0.29625401 0.185325
-0.113068 -0.279066 0.18796501
-0.095880501 -0.279066 0.18884701
-0.078693002 -0.279066 0.195421
-0.250568 -0.17594101 0.178994
-0.233381 -0.17594101 0.191833
-0.250568 -0.15875401 0.184964
-0.250568 -0.14156599 0.19315401
-0.250568 -0.090003997 0.19244
-0.250568 -0.072816402 0.18488801
-0.233381 -0.072816402 0.19103099
-0.250568 -0.055629 0.184074
-0.233381 -0.055629 0.187811
-0.21619301 -0.055629 0.191231
-0.19900601 -0.055629 0.19373401
0.024431899 -0.365004 0.18162701
0.024431899 -0.34781599 0.189107
0.041619498 -0.34781599 0.182723
0.024431899 -0.33062899 0.191191
0.041619498 -0.33062899 0.185387
0.058807001 -0.34781599 0.17959601
0.058807001 -0.33062899 0.18316001
0.075994499 -0.33062899 0.182908
0.093181998 -0.33062899 0.182128
0.110369 -0.33062899 0.180227
0.024431899 -0.31344101 0.19171099
0.041619498 -0.31344101 0.18949001
0.058807001 -0.31344101 0.18889999
0.075994499 -0.31344101 0.187967
0.093181998 -0.31344101 0.187424
0.110369 -0.31344101 0.185739
0.110369 -0.29625401 0.193716
0.12755699 -0.31344101 0.183305
0.14474399 -0.31344101 0.17974199
0.12755699 -0.29625401 0.189881
0.14474399 -0.29625401 0.185735
0.16193201 -0.29625401 0.181123
0.16193201 -0.279066 0.188198
0.17911901 -0.279066 0.183163
0.17911901 -0.261879 0.18933199
0.196307 -0.279066 0.17867599
0.196307 -0.261879 0.185297
0.213494 -0.261879 0.180123
0.196307 -0.244691 0.19450299
0.213494 -0.244691 0.187838
0.230682 -0.244691 0.182382
0.230682 -0.227504 0.191654
0.247869 -0.227504 0.185344
0.265057 -0.227504 0.178937
0.265057 -0.210316 0.188347
0.28224501 -0.210316 0.179161
0.28224501 -0.193129 0.186432
0.28224501 -0.17594101 0.192645
0.29943201 -0.17594101 0.186676
0.31661901 -0.17594101 0.181775
0.31661901 -0.15875401 0.190777
0.31661901 -0.14156599 0.19507
0.33380699 -0.14156599 0.181118
0.33380699 -0.124379 0.185269
0.33380699 -0.107191 0.18850601
0.33380699 -0.090003997 0.18931399
0.33380699 -0.072816402 0.18828601
0.35099399 -0.072816402 0.17857701
0.33380699 -0.055629 0.18982001
0.35099399 -0.055629 0.182447
-0.26775599 -0.038441502 0.17869601
-0.250568 -0.038441502 0.18387599
-0.233381 -0.038441502 0.187663
-0.233381 -0.021253901 0.18153501
-0.21619301 -0.038441502 0.190394
-0.19900601 -0.038441502 0.19270401
-0.21619301 -0.021253901 0.18376
-0.19900601 -0.021253901 0.185856
-0.18181799 -0.038441502 0.193836
-0.16463099 -0.038441502 0.194986
-0.18181799 -0.021253901 0.187736
-0.16463099 -0.021253901 0.18841401
-0.147443 -0.021253901 0.1899
-0.130256 -0.021253901 0.19134
-0.18181799 -0.0040664701 0.179001
-0.16463099 -0.0040664701 0.17984501
-0.147443 -0.0040664701 0.180378
-0.130256 -0.0040664701 0.180748
-0.113068 -0.021253901 0.19087701
-0.095880501 -0.021253901 0.19048201
-0.078693002 -0.021253901 0.19057301
-0.0615055 -0.021253901 0.190588
-0.113068 -0.0040664701 0.180704
-0.095880501 -0.0040664701 0.18129601
-0.078693002 -0.0040664701 0.18213899
-0.0615055 -0.0040664701 0.18221401
-0.044318002 -0.021253901 0.18770701
-0.027130499 -0.021253901 0.18462899
-0.0099430103 -0.021253901 0.19123
-0.044318002 -0.0040664701 0.181573
-0.027130499 -0.0040664701 0.182111
-0.0099430103 -0.0040664701 0.18556499
0.0072444701 -0.0040664701 0.188307
-0.16463099 0.21937101 0.179931
-0.147443 0.21937101 0.181412
-0.130256 0.21937101 0.178389
0.0072444701 0.21937101 0.179079
-0.19900601 0.236559 0.18259101
-0.19900601 0.253746 0.185127
-0.21619301 0.27093399 0.179285
-0.19900601 0.27093399 0.18496101
-0.21619301 0.28812101 0.179785
-0.19900601 0.28812101 0.18324199
-0.18181799 0.236559 0.182237
-0.16463099 0.236559 0.182459
-0.18181799 0.253746 0.18731099
-0.16463099 0.253746 0.18659601
-0.147443 0.236559 0.185185
-0.130256 0.236559 0.18562099
-0.147443 0.253746 0.187985
-0.130256 0.253746 0.189918
-0.18181799 0.27093399 0.190557
-0.16463099 0.27093399 0.19072901
-0.18181799 0.28812101 0.190348
-0.16463099 0.28812101 0.193933
-0.147443 0.27093399 0.189592
-0.130256 0.27093399 0.19147301
-0.147443 0.28812101 0.193977
-0.130256 0.28812101 0.194213
-0.233381 0.305309 0.178324
-0.21619301 0.305309 0.180206
-0.19900601 0.305309 0.182834
-0.21619301 0.322496 0.179821
-0.19900601 0.322496 0.182588
-0.19900601 0.33968401 0.180378
-0.18181799 0.305309 0.187608
-0.16463099 0.305309 0.193514
-0.18181799 0.322496 0.18505
-0.16463099 0.322496 0.188472
-0.147443 0.322496 0.19328
-0.18181799 0.33968401 0.183024
-0.16463099 0.33968401 0.184944
-0.18181799 0.35687101 0.17894401
-0.16463099 0.35687101 0.182097
-0.147443 0.33968401 0.18762
-0.130256 0.33968401 0.190989
-0.147443 0.35687101 0.18440901
-0.130256 0.35687101 0.18592501
-0.113068 0.236559 0.18200199
-0.113068 0.253746 0.18997499
-0.095880501 0.253746 0.188705
-0.078693002 0.253746 0.18509699
-0.0615055 0.253746 0.182145
-0.113068 0.27093399 0.19356801
-0.095880501 0.27093399 0.195021
-0.113068 0.28812101 0.194988
-0.044318002 0.253746 0.182033
-0.027130499 0.253746 0.183854
-0.0099430103 0.236559 0.179717
0.0072444701 0.236559 0.18210401
-0.0099430103 0.253746 0.186774
0.0072444701 0.253746 0.191971
-0.113068 0.33968401 0.19445699
-0.113068 0.35687101 0.18777201
-0.095880501 0.35687101 0.189842
-0.078693002 0.35687101 0.19236501
-0.0615055 0.35687101 0.19464999
-0.130256 0.37405899 0.179794
-0.113068 0.37405899 0.18122301
-0.095880501 0.37405899 0.183045
-0.078693002 0.37405899 0.18509801
-0.0615055 0.37405899 0.186497
-0.044318002 0.37405899 0.188132
-0.027130499 0.37405899 0.189869
-0.044318002 0.39124599 0.179556
-0.027130499 0.39124599 0.18058001
-0.0099430103 0.37405899 0.191403
0.0072444701 0.37405899 0.19195201
-0.0099430103 0.39124599 0.18118501
0.0072444701 0.39124599 0.181766
0.024431899 -0.0040664701 0.18967
0.041619498 -0.0040664701 0.19196001
0.024431899 0.0131211 0.178978
0.041619498 0.0131211 0.180766
0.058807001 -0.0040664701 0.19469801
0.058807001 0.0131211 0.18360101
0.075994499 0.0131211 0.185959
0.093181998 0.0131211 0.18771701
0.110369 0.0131211 0.18897
0.12755699 0.0131211 0.189972
0.14474399 0.0131211 0.19123501
0.075994499 0.0303085 0.17879701
0.075994499 0.081871003 0.17871501
0.093181998 0.0303085 0.18100099
0.110369 0.0303085 0.184122
0.093181998 0.047495998 0.179492
0.110369 0.047495998 0.18275601
0.12755699 0.0303085 0.187365
0.14474399 0.0303085 0.18952601
0.12755699 0.047495998 0.185886
0.14474399 0.047495998 0.18746001
0.110369 0.064683601 0.18098301
0.093181998 0.081871003 0.17895
0.110369 0.081871003 0.179573
0.12755699 0.064683601 0.18329
0.14474399 0.064683601 0.184623
0.12755699 0.081871003 0.181545
0.14474399 0.081871003 0.18381201
0.16193201 0.0131211 0.192894
0.17911901 0.0131211 0.194574
0.16193201 0.0303085 0.191195
0.17911901 0.0303085 0.192791
0.16193201 0.047495998 0.188631
0.17911901 0.047495998 0.190891
0.196307 0.0303085 0.19438
0.196307 0.047495998 0.19291601
0.213494 0.047495998 0.19418401
0.16193201 0.064683601 0.18616
0.17911901 0.064683601 0.188748
0.16193201 0.081871003 0.185721
0.17911901 0.081871003 0.187993
0.196307 0.064683601 0.190872
0.213494 0.064683601 0.192292
0.196307 0.081871003 0.18982799
0.213494 0.081871003 0.191807
0.230682 0.064683601 0.194539
0.230682 0.081871003 0.19427601
0.075994499 0.099058598 0.178776
0.075994499 0.116246 0.17922699
0.058807001 0.133434 0.18081599
0.075994499 0.133434 0.18231
0.058807001 0.150621 0.18163
0.075994499 0.150621 0.18516999
0.093181998 0.099058598 0.18161701
0.110369 0.099058598 0.181881
0.093181998 0.116246 0.18285599
0.110369 0.116246 0.185798
0.12755699 0.099058598 0.181712
0.14474399 0.099058598 0.18396901
0.12755699 0.116246 0.184148
0.14474399 0.116246 0.183883
0.093181998 0.133434 0.183173
0.110369 0.133434 0.18801799
0.093181998 0.150621 0.185954
0.110369 0.150621 0.18974499
0.12755699 0.133434 0.188031
0.14474399 0.133434 0.184898
0.12755699 0.150621 0.190606
0.14474399 0.150621 0.18634599
0.058807001 0.16780899 0.18130299
0.075994499 0.16780899 0.18813001
0.058807001 0.18499599 0.18292899
0.075994499 0.18499599 0.191259
0.041619498 0.20218401 0.179923
0.024431899 0.21937101 0.18201201
0.041619498 0.21937101 0.18569601
0.058807001 0.20218401 0.186545
0.075994499 0.20218401 0.195048
0.058807001 0.21937101 0.19383501
0.093181998 0.16780899 0.188261
0.110369 0.16780899 0.191182
0.093181998 0.18499599 0.191494
0.110369 0.18499599 0.193581
0.12755699 0.16780899 0.19402599
0.14474399 0.16780899 0.189234
0.14474399 0.18499599 0.19230901
0.093181998 0.20218401 0.195352
0.14474399 0.20218401 0.19329999
0.16193201 0.099058598 0.18592601
0.17911901 0.099058598 0.188162
0.16193201 0.116246 0.18608101
0.17911901 0.116246 0.18818399
0.196307 0.099058598 0.19033299
0.213494 0.099058598 0.192422
0.196307 0.116246 0.190901
0.213494 0.116246 0.194088
0.16193201 0.133434 0.186418
0.17911901 0.133434 0.18829
0.16193201 0.150621 0.186974
0.17911901 0.150621 0.19013999
0.196307 0.133434 0.191682
0.213494 0.133434 0.195308
0.196307 0.150621 0.19306999
0.230682 0.099058598 0.19428
0.230682 0.116246 0.195356
0.16193201 0.16780899 0.188632
0.17911901 0.16780899 0.19233499
0.16193201 0.18499599 0.190681
0.17911901 0.18499599 0.194011
0.196307 0.16780899 0.19464
0.16193201 0.20218401 0.192939
0.33380699 -0.038441502 0.19350401
0.35099399 -0.038441502 0.18659399
0.35099399 -0.021253901 0.19009501
0.35099399 -0.0040664701 0.19215
0.35099399 0.0131211 0.194113
0.368182 -0.021253901 0.18222199
0.368182 -0.0040664701 0.185617
0.368182 0.0131211 0.188428
0.385369 0.0131211 0.180692
0.35099399 0.0303085 0.19546799
0.368182 0.0303085 0.190228
0.385369 0.0303085 0.18434399
0.368182 0.047495998 0.192435
0.385369 0.047495998 0.187502
0.40255699 0.047495998 0.179581
0.368182 0.064683601 0.194756
0.385369 0.064683601 0.190346
0.385369 0.081871003 0.193498
0.40255699 0.064683601 0.18296701
0.40255699 0.081871003 0.186827
0.40255699 0.099058598 0.189647
0.41974401 0.099058598 0.180641
0.40255699 0.116246 0.19192301
0.41974401 0.116246 0.18292201
0.40255699 0.133434 0.19393399
0.41974401 0.133434 0.18573099
0.41974401 0.150621 0.188632
0.41974401 0.16780899 0.18964601
0.41974401 0.18499599 0.18964399
0.41974401 0.20218401 0.188008
0.40255699 0.21937101 0.194904
0.41974401 0.21937101 0.185158
0.436932 0.150621 0.178984
0.436932 0.16780899 0.179922
0.436932 0.18499599 0.17955901
0.024431899 0.236559 0.18515401
0.041619498 0.236559 0.19342899
0.16193201 0.35687101 0.195237
0.17911901 0.35687101 0.19475301
0.196307 0.35687101 0.19342899
0.213494 0.35687101 0.190313
0.247869 0.33968401 0.19503599
0.230682 0.35687101 0.186241
0.247869 0.35687101 0.180342
0.265057 0.33968401 0.190607
0.28224501 0.33968401 0.18636601
0.024431899 0.37405899 0.191459
0.041619498 0.37405899 0.19095001
0.024431899 0.39124599 0.18192799
0.041619498 0.39124599 0.18151499
0.058807001 0.37405899 0.190503
0.075994499 0.37405899 0.190293
0.058807001 0.39124599 0.180364
0.075994499 0.39124599 0.179199
0.093181998 0.37405899 0.189494
0.110369 0.37405899 0.18915699
0.12755699 0.37405899 0.18889
0.14474399 0.37405899 0.186791
0.16193201 0.37405899 0.18392999
0.17911901 0.37405899 0.180774
0.35099399 0.28812101 0.193189
0.385369 0.253746 0.193461
0.40255699 0.236559 0.190836
0.41974401 0.236559 0.17907
0.40255699 0.253746 0.182781
0.368182 0.27093399 0.194506
0.385369 0.27093399 0.18511701
0.368182 0.28812101 0.18461999
0.29943201 0.322496 0.192233
0.31661901 0.322496 0.18415201
0.33380699 0.305309 0.19025999
0.35099399 0.305309 0.181862
-0.0615055 -0.442399 0.212671
-0.073399097 -0.433754 0.212671
-0.078693002 -0.42280301 0.212671
-0.081792302 -0.41656601 0.212671
-0.082604997 -0.39937899 0.212671
-0.044318002 -0.442332 0.212671
-0.0274648 -0.433754 0.212671
-0.027130499 -0.43340701 0.212671
-0.0167295 -0.41656601 0.212671
-0.0131578 -0.39937899 0.212671
-0.0792832 -0.382191 0.212671
-0.078693002 -0.378703 0.212671
-0.076865397 -0.365004 0.212671
-0.073534697 -0.34781599 0.212671
-0.070089802 -0.33062899 0.212671
-0.011222 -0.382191 0.212671
-0.010196 -0.365004 0.212671
-0.0099430103 -0.35967299 0.212671
-0.0090899495 -0.34781599 0.212671
-0.0083667599 -0.33062899 0.212671
-0.16463099 -0.246557 0.212671
-0.16899601 -0.244691 0.212671
-0.18181799 -0.239629 0.212671
-0.19303299 -0.227504 0.212671
-0.147443 -0.25188401 0.212671
-0.130256 -0.25229701 0.212671
-0.194397 -0.210316 0.212671
-0.19559599 -0.193129 0.212671
-0.067804299 -0.31344101 0.212671
-0.064395003 -0.29625401 0.212671
-0.062250901 -0.279066 0.212671
-0.063413799 -0.261879 0.212671
-0.0089423703 -0.31344101 0.212671
-0.0099430103 -0.30032599 0.212671
-0.0104115 -0.29625401 0.212671
-0.0113573 -0.279066 0.212671
-0.0099430103 -0.267252 0.212671
-0.00807261 -0.261879 0.212671
-0.113068 -0.247445 0.212671
-0.109266 -0.244691 0.212671
-0.095880501 -0.233575 0.212671
-0.069488898 -0.244691 0.212671
-0.078693002 -0.234525 0.212671
0.0072444701 -0.255294 0.212671
-0.19900601 -0.18115699 0.212671
-0.19953699 -0.17594101 0.212671
-0.203896 -0.15875401 0.212671
-0.214039 -0.14156599 0.212671
-0.21619301 -0.13788 0.212671
-0.22386301 -0.124379 0.212671
-0.22208101 -0.107191 0.212671
-0.21619301 -0.101682 0.212671
-0.19900601 -0.0937327 0.212671
-0.18181799 -0.090963103 0.212671
-0.165409 -0.090003997 0.212671
-0.16463099 -0.089947201 0.212671
-0.147443 -0.088990301 0.212671
-0.130256 -0.088355698 0.212671
-0.113068 -0.087155797 0.212671
-0.095880501 -0.0878786 0.212671
-0.078693002 -0.088293701 0.212671
-0.0615055 -0.085628197 0.212671
-0.044318002 -0.085783802 0.212671
-0.027130499 -0.082811102 0.212671
-0.019080499 -0.072816402 0.212671
-0.0099430103 -0.0574327 0.212671
-0.0077783498 -0.055629 0.212671
0.024431899 -0.26708099 0.212671
0.018080199 -0.261879 0.212671
0.041619498 -0.27604601 0.212671
0.075994499 -0.28090999 0.212671
0.065809302 -0.279066 0.212671
0.058807001 -0.27811 0.212671
0.093181998 -0.282058 0.212671
0.110369 -0.28086001 0.212671
0.119691 -0.279066 0.212671
0.12755699 -0.275417 0.212671
0.14474399 -0.26552501 0.212671
0.150104 -0.261879 0.212671
0.16193201 -0.25147399 0.212671
0.170011 -0.244691 0.212671
0.17911901 -0.23626 0.212671
0.186232 -0.227504 0.212671
0.196307 -0.21601801 0.212671
0.202327 -0.210316 0.212671
0.213494 -0.202898 0.212671
0.228175 -0.193129 0.212671
0.230682 -0.191091 0.212671
0.247832 -0.17594101 0.212671
0.247869 -0.175899 0.212671
0.25635099 -0.15875401 0.212671
0.26467901 -0.14156599 0.212671
0.265057 -0.14140899 0.212671
0.28224501 -0.136335 0.212671
0.28224501 -0.058374099 0.212671
0.279919 -0.055629 0.212671
0.29154399 -0.124379 0.212671
0.29333201 -0.107191 0.212671
0.29224899 -0.090003997 0.212671
0.29060701 -0.072816402 0.212671
0.0072444701 -0.045796301 0.212671
0.024431899 -0.040832199 0.212671
0.040183101 -0.038441502 0.212671
0.041619498 -0.038223699 0.212671
0.058807001 -0.035489999 0.212671
0.075994499 -0.032409601 0.212671
0.093181998 -0.027998099 0.212671
0.110369 -0.025464499 0.212671
0.12755699 -0.0251383 0.212671
0.14474399 -0.023882 0.212671
0.16193201 -0.0258315 0.212671
0.17911901 -0.027738299 0.212671
0.196307 -0.026169401 0.212671
0.213494 -0.0260773 0.212671
0.230682 -0.029886801 0.212671
0.247869 -0.035133701 0.212671
0.265057 -0.0416971 0.212671
0.257994 -0.038441502 0.212671
-0.078693002 -0.433754 0.2071
-0.027130499 -0.433754 0.212411
-0.0099430103 -0.433754 0.198662
-0.0099430103 -0.41656601 0.20718201
-0.0099430103 -0.39937899 0.208203
-0.078693002 -0.365004 0.209584
-0.078693002 -0.34781599 0.20511401
-0.078693002 -0.33062899 0.20101599
-0.0099430103 -0.382191 0.21105599
-0.0099430103 -0.365004 0.212364
0.0072444701 -0.34781599 0.198332
0.0072444701 -0.33062899 0.201056
-0.16463099 -0.261879 0.197318
-0.147443 -0.261879 0.201469
-0.130256 -0.261879 0.202913
-0.19900601 -0.244691 0.195889
-0.19900601 -0.227504 0.20931
-0.21619301 -0.210316 0.20022599
-0.19900601 -0.210316 0.21052501
-0.21619301 -0.193129 0.201667
-0.19900601 -0.193129 0.211037
-0.18181799 -0.244691 0.207422
-0.078693002 -0.31344101 0.19845
-0.078693002 -0.29625401 0.195958
-0.113068 -0.261879 0.20375501
-0.095880501 -0.261879 0.201428
-0.078693002 -0.261879 0.201996
0.0072444701 -0.31344101 0.20057
-0.0099430103 -0.29625401 0.212237
0.0072444701 -0.29625401 0.20035
-0.0099430103 -0.279066 0.21149801
0.0072444701 -0.279066 0.20321199
0.0072444701 -0.261879 0.209305
-0.095880501 -0.244691 0.209114
-0.078693002 -0.244691 0.208441
-0.233381 -0.15875401 0.196633
-0.21619301 -0.17594101 0.202657
-0.21619301 -0.15875401 0.20631699
-0.233381 -0.14156599 0.20254999
-0.250568 -0.124379 0.198998
-0.233381 -0.124379 0.20815
-0.21619301 -0.14156599 0.211621
-0.250568 -0.107191 0.198901
-0.233381 -0.107191 0.20796201
-0.233381 -0.090003997 0.199994
-0.21619301 -0.090003997 0.206303
-0.19900601 -0.090003997 0.210517
-0.21619301 -0.072816402 0.195573
-0.19900601 -0.072816402 0.19868401
-0.18181799 -0.090003997 0.212075
-0.18181799 -0.072816402 0.20121001
-0.16463099 -0.072816402 0.202208
-0.18181799 -0.055629 0.19548801
-0.16463099 -0.055629 0.197372
-0.147443 -0.072816402 0.20248801
-0.130256 -0.072816402 0.20313799
-0.147443 -0.055629 0.19801401
-0.130256 -0.055629 0.19896799
-0.113068 -0.072816402 0.20456199
-0.095880501 -0.072816402 0.204197
-0.113068 -0.055629 0.200516
-0.095880501 -0.055629 0.201584
-0.078693002 -0.072816402 0.204918
-0.0615055 -0.072816402 0.207572
-0.078693002 -0.055629 0.203124
-0.0615055 -0.055629 0.204776
-0.044318002 -0.072816402 0.208158
-0.027130499 -0.072816402 0.21059901
-0.044318002 -0.055629 0.206067
-0.027130499 -0.055629 0.209029
-0.0099430103 -0.055629 0.212319
0.024431899 -0.29625401 0.19724099
0.041619498 -0.29625401 0.197091
0.058807001 -0.29625401 0.196646
0.075994499 -0.29625401 0.197402
0.024431899 -0.279066 0.20542499
0.041619498 -0.279066 0.20933001
0.058807001 -0.279066 0.211211
0.093181998 -0.29625401 0.19712099
0.12755699 -0.279066 0.209245
0.14474399 -0.279066 0.197873
0.16193201 -0.261879 0.19955499
0.17911901 -0.244691 0.202822
0.196307 -0.227504 0.20576701
0.213494 -0.227504 0.19713201
0.213494 -0.210316 0.208233
0.230682 -0.210316 0.202162
0.247869 -0.210316 0.19604699
0.230682 -0.193129 0.211721
0.247869 -0.193129 0.20525099
0.265057 -0.193129 0.196988
0.247869 -0.17594101 0.212652
0.265057 -0.17594101 0.20290101
0.265057 -0.15875401 0.206542
0.28224501 -0.15875401 0.199891
0.265057 -0.14156599 0.212588
0.28224501 -0.14156599 0.20914701
0.28224501 -0.055629 0.21180999
0.29943201 -0.15875401 0.197873
0.29943201 -0.14156599 0.20503099
0.29943201 -0.124379 0.207957
0.31661901 -0.124379 0.196678
0.29943201 -0.107191 0.20873401
0.31661901 -0.107191 0.1988
0.29943201 -0.090003997 0.209457
0.31661901 -0.090003997 0.20118199
0.29943201 -0.072816402 0.209158
0.31661901 -0.072816402 0.19929001
0.29943201 -0.055629 0.204749
0.31661901 -0.055629 0.197097
-0.147443 -0.038441502 0.196548
-0.130256 -0.038441502 0.197706
-0.113068 -0.038441502 0.19880401
-0.095880501 -0.038441502 0.19979499
-0.078693002 -0.038441502 0.1996
-0.0615055 -0.038441502 0.200758
-0.044318002 -0.038441502 0.20162199
-0.027130499 -0.038441502 0.20049199
-0.0099430103 -0.038441502 0.204797
0.0072444701 -0.038441502 0.20911799
0.0072444701 -0.021253901 0.197586
-0.147443 0.305309 0.197083
-0.130256 0.305309 0.198424
-0.130256 0.322496 0.19720501
-0.095880501 0.28812101 0.19636901
-0.078693002 0.27093399 0.195921
-0.0615055 0.27093399 0.19595399
-0.078693002 0.28812101 0.198451
-0.0615055 0.28812101 0.200207
-0.044318002 0.27093399 0.196108
-0.027130499 0.27093399 0.197892
-0.044318002 0.28812101 0.20049199
-0.027130499 0.28812101 0.200553
-0.0099430103 0.27093399 0.199608
0.0072444701 0.27093399 0.200535
-0.0099430103 0.28812101 0.201056
0.0072444701 0.28812101 0.202006
-0.113068 0.305309 0.198452
-0.095880501 0.305309 0.199082
-0.113068 0.322496 0.200073
-0.095880501 0.322496 0.202593
-0.078693002 0.305309 0.20110901
-0.0615055 0.305309 0.202526
-0.078693002 0.322496 0.20475499
-0.0615055 0.322496 0.205687
-0.095880501 0.33968401 0.19766399
-0.078693002 0.33968401 0.200912
-0.0615055 0.33968401 0.20367099
-0.044318002 0.305309 0.202703
-0.027130499 0.305309 0.20350599
-0.044318002 0.322496 0.206569
-0.027130499 0.322496 0.207398
-0.0099430103 0.305309 0.204023
0.0072444701 0.305309 0.204436
-0.0099430103 0.322496 0.207433
0.0072444701 0.322496 0.207013
-0.044318002 0.33968401 0.20493101
-0.027130499 0.33968401 0.204906
-0.044318002 0.35687101 0.196529
-0.027130499 0.35687101 0.197212
-0.0099430103 0.33968401 0.203738
0.0072444701 0.33968401 0.202268
-0.0099430103 0.35687101 0.196923
0.0072444701 0.35687101 0.196876
0.024431899 -0.038441502 0.211262
0.024431899 -0.021253901 0.20000701
0.041619498 -0.021253901 0.201395
0.058807001 -0.021253901 0.203343
0.075994499 -0.021253901 0.205211
0.075994499 -0.0040664701 0.197165
0.093181998 -0.021253901 0.208215
0.110369 -0.021253901 0.210301
0.12755699 -0.021253901 0.210811
0.14474399 -0.021253901 0.211438
0.093181998 -0.0040664701 0.199514
0.110369 -0.0040664701 0.201634
0.12755699 -0.0040664701 0.20173401
0.14474399 -0.0040664701 0.200324
0.16193201 -0.021253901 0.210622
0.17911901 -0.021253901 0.209778
0.196307 -0.021253901 0.20996501
0.213494 -0.021253901 0.209245
0.16193201 -0.0040664701 0.199953
0.17911901 -0.0040664701 0.20023
0.196307 -0.0040664701 0.200105
0.213494 -0.0040664701 0.200278
0.196307 0.0131211 0.195751
0.213494 0.0131211 0.197133
0.230682 -0.021253901 0.20703
0.247869 -0.021253901 0.20577399
0.265057 -0.038441502 0.210904
0.28224501 -0.038441502 0.206009
0.265057 -0.021253901 0.204659
0.28224501 -0.021253901 0.203722
0.230682 -0.0040664701 0.20056
0.247869 -0.0040664701 0.201287
0.230682 0.0131211 0.198633
0.247869 0.0131211 0.20008899
0.265057 -0.0040664701 0.202925
0.28224501 -0.0040664701 0.203297
0.265057 0.0131211 0.20197301
0.28224501 0.0131211 0.201408
0.213494 0.0303085 0.19597501
0.230682 0.0303085 0.197703
0.247869 0.0303085 0.199339
0.230682 0.047495998 0.196063
0.247869 0.047495998 0.19852
0.265057 0.0303085 0.20157801
0.28224501 0.0303085 0.200637
0.265057 0.047495998 0.201013
0.28224501 0.047495998 0.20136701
0.247869 0.064683601 0.19778
0.247869 0.081871003 0.19777399
0.265057 0.064683601 0.20088001
0.28224501 0.064683601 0.201827
0.265057 0.081871003 0.20115399
0.28224501 0.081871003 0.202323
0.075994499 0.21937101 0.198861
0.12755699 0.18499599 0.196748
0.110369 0.20218401 0.195821
0.093181998 0.21937101 0.19852699
0.110369 0.21937101 0.199376
0.12755699 0.20218401 0.197349
0.12755699 0.21937101 0.19996201
0.14474399 0.21937101 0.196132
0.213494 0.150621 0.196155
0.247869 0.099058598 0.197071
0.247869 0.116246 0.197549
0.265057 0.099058598 0.200891
0.28224501 0.099058598 0.20288201
0.265057 0.116246 0.201528
0.28224501 0.116246 0.20418
0.230682 0.133434 0.19757099
0.247869 0.133434 0.200523
0.230682 0.150621 0.19959299
0.247869 0.150621 0.20334999
0.265057 0.133434 0.203558
0.28224501 0.133434 0.206413
0.265057 0.150621 0.205761
0.28224501 0.150621 0.208165
0.213494 0.16780899 0.197761
0.196307 0.18499599 0.19699401
0.213494 0.18499599 0.200234
0.17911901 0.20218401 0.19614699
0.16193201 0.21937101 0.196227
0.17911901 0.21937101 0.19932801
0.196307 0.20218401 0.19943
0.213494 0.20218401 0.20246799
0.196307 0.21937101 0.202225
0.213494 0.21937101 0.204799
0.230682 0.16780899 0.20144901
0.247869 0.16780899 0.20478401
0.230682 0.18499599 0.204055
0.247869 0.18499599 0.207289
0.265057 0.16780899 0.206889
0.28224501 0.16780899 0.208976
0.265057 0.18499599 0.208839
0.28224501 0.18499599 0.210031
0.230682 0.20218401 0.206027
0.247869 0.20218401 0.20949
0.230682 0.21937101 0.20784301
0.247869 0.21937101 0.21002799
0.265057 0.20218401 0.211105
0.28224501 0.20218401 0.211742
0.265057 0.21937101 0.211652
0.28224501 0.21937101 0.212457
0.29943201 -0.038441502 0.20268901
0.31661901 -0.038441502 0.19879
0.29943201 -0.021253901 0.202833
0.31661901 -0.021253901 0.200225
0.33380699 -0.021253901 0.196007
0.29943201 -0.0040664701 0.202113
0.31661901 -0.0040664701 0.200314
0.29943201 0.0131211 0.200633
0.31661901 0.0131211 0.200389
0.33380699 -0.0040664701 0.197092
0.33380699 0.0131211 0.19791
0.29943201 0.0303085 0.19894101
0.31661901 0.0303085 0.20039099
0.29943201 0.047495998 0.198697
0.31661901 0.047495998 0.198944
0.33380699 0.0303085 0.199212
0.33380699 0.047495998 0.199297
0.35099399 0.047495998 0.196427
0.29943201 0.064683601 0.19876
0.31661901 0.064683601 0.198342
0.29943201 0.081871003 0.19936
0.31661901 0.081871003 0.197787
0.33380699 0.064683601 0.19991
0.35099399 0.064683601 0.198048
0.33380699 0.081871003 0.201022
0.35099399 0.081871003 0.200119
0.368182 0.081871003 0.197124
0.29943201 0.099058598 0.202435
0.31661901 0.099058598 0.201215
0.29943201 0.116246 0.205339
0.31661901 0.116246 0.20324799
0.33380699 0.099058598 0.20264401
0.35099399 0.099058598 0.20269699
0.33380699 0.116246 0.203853
0.35099399 0.116246 0.205245
0.29943201 0.133434 0.208124
0.31661901 0.133434 0.20498399
0.29943201 0.150621 0.21054199
0.31661901 0.150621 0.207765
0.33380699 0.133434 0.204293
0.35099399 0.133434 0.206498
0.33380699 0.150621 0.20534
0.35099399 0.150621 0.207187
0.368182 0.099058598 0.199991
0.385369 0.099058598 0.195867
0.368182 0.116246 0.20228501
0.385369 0.116246 0.198034
0.368182 0.133434 0.204256
0.385369 0.133434 0.199793
0.368182 0.150621 0.206016
0.385369 0.150621 0.2018
0.40255699 0.150621 0.19555201
0.29943201 0.16780899 0.211441
0.31661901 0.16780899 0.210703
0.29943201 0.18499599 0.21156099
0.31661901 0.18499599 0.212293
0.33380699 0.16780899 0.20609801
0.35099399 0.16780899 0.206762
0.33380699 0.18499599 0.207288
0.35099399 0.18499599 0.20637
0.29943201 0.20218401 0.211941
0.31661901 0.20218401 0.212542
0.29943201 0.21937101 0.21204901
0.31661901 0.21937101 0.212552
0.33380699 0.20218401 0.20911901
0.35099399 0.20218401 0.205733
0.33380699 0.21937101 0.21016701
0.35099399 0.21937101 0.205036
0.368182 0.16780899 0.207774
0.385369 0.16780899 0.20343401
0.368182 0.18499599 0.208663
0.385369 0.18499599 0.203943
0.40255699 0.16780899 0.197302
0.40255699 0.18499599 0.19784699
0.368182 0.20218401 0.20706999
0.385369 0.20218401 0.204097
0.368182 0.21937101 0.205047
0.385369 0.21937101 0.202924
0.40255699 0.20218401 0.196887
0.024431899 0.253746 0.19772001
0.041619498 0.253746 0.20104501
0.058807001 0.236559 0.200306
0.075994499 0.236559 0.20145001
0.058807001 0.253746 0.202222
0.075994499 0.253746 0.203409
0.024431899 0.27093399 0.202033
0.041619498 0.27093399 0.202838
0.024431899 0.28812101 0.20360599
0.041619498 0.28812101 0.20490301
0.058807001 0.27093399 0.203647
0.075994499 0.27093399 0.206357
0.058807001 0.28812101 0.20664801
0.075994499 0.28812101 0.20959499
0.093181998 0.236559 0.200822
0.110369 0.236559 0.202876
0.093181998 0.253746 0.20430399
0.110369 0.253746 0.20557199
0.12755699 0.236559 0.202049
0.14474399 0.236559 0.19870099
0.12755699 0.253746 0.202831
0.14474399 0.253746 0.200409
0.093181998 0.27093399 0.208946
0.110369 0.27093399 0.207219
0.093181998 0.28812101 0.20953
0.110369 0.28812101 0.205561
0.12755699 0.27093399 0.203183
0.14474399 0.27093399 0.202785
0.12755699 0.28812101 0.203719
0.14474399 0.28812101 0.205057
0.024431899 0.305309 0.20609701
0.041619498 0.305309 0.20798001
0.024431899 0.322496 0.206734
0.041619498 0.322496 0.20624501
0.058807001 0.305309 0.20892
0.075994499 0.305309 0.207956
0.058807001 0.322496 0.204981
0.075994499 0.322496 0.20295499
0.024431899 0.33968401 0.201289
0.041619498 0.33968401 0.20018101
0.024431899 0.35687101 0.19651601
0.041619498 0.35687101 0.196298
0.058807001 0.33968401 0.199518
0.075994499 0.33968401 0.19947401
0.058807001 0.35687101 0.19637699
0.075994499 0.35687101 0.196209
0.093181998 0.305309 0.206099
0.110369 0.305309 0.20452701
0.093181998 0.322496 0.20242
0.110369 0.322496 0.20321199
0.12755699 0.305309 0.204106
0.14474399 0.305309 0.205391
0.12755699 0.322496 0.203098
0.14474399 0.322496 0.203575
0.093181998 0.33968401 0.199734
0.110369 0.33968401 0.20079499
0.093181998 0.35687101 0.196279
0.110369 0.35687101 0.197153
0.12755699 0.33968401 0.201285
0.14474399 0.33968401 0.20091601
0.12755699 0.35687101 0.197381
0.14474399 0.35687101 0.196444
0.16193201 0.236559 0.199564
0.17911901 0.236559 0.20263299
0.16193201 0.253746 0.20202599
0.17911901 0.253746 0.204465
0.196307 0.236559 0.205209
0.213494 0.236559 0.206873
0.196307 0.253746 0.20701399
0.213494 0.253746 0.208793
0.16193201 0.27093399 0.20485
0.17911901 0.27093399 0.20662899
0.16193201 0.28812101 0.20682999
0.17911901 0.28812101 0.208083
0.196307 0.27093399 0.20893
0.213494 0.27093399 0.210815
0.196307 0.28812101 0.20964
0.213494 0.28812101 0.21056101
0.230682 0.236559 0.209484
0.247869 0.236559 0.21093801
0.230682 0.253746 0.20996501
0.247869 0.253746 0.21101899
0.265057 0.236559 0.21180999
0.28224501 0.236559 0.212028
0.265057 0.253746 0.212161
0.28224501 0.253746 0.211842
0.230682 0.27093399 0.210685
0.247869 0.27093399 0.21063399
0.230682 0.28812101 0.21028601
0.247869 0.28812101 0.20974
0.265057 0.27093399 0.211165
0.28224501 0.27093399 0.21060599
0.265057 0.28812101 0.208626
0.28224501 0.28812101 0.207752
0.16193201 0.305309 0.20649301
0.17911901 0.305309 0.206882
0.16193201 0.322496 0.20439801
0.17911901 0.322496 0.204817
0.196307 0.305309 0.207994
0.213494 0.305309 0.208699
0.196307 0.322496 0.205081
0.213494 0.322496 0.20509399
0.16193201 0.33968401 0.20125601
0.17911901 0.33968401 0.20164999
0.196307 0.33968401 0.200552
0.213494 0.33968401 0.199056
0.230682 0.305309 0.20848501
0.247869 0.305309 0.207588
0.230682 0.322496 0.204757
0.247869 0.322496 0.203587
0.265057 0.305309 0.205992
0.28224501 0.305309 0.20407701
0.265057 0.322496 0.20107099
0.28224501 0.322496 0.1973
0.230682 0.33968401 0.19758999
0.29943201 0.236559 0.211766
0.31661901 0.236559 0.212037
0.29943201 0.253746 0.21106
0.31661901 0.253746 0.210612
0.33380699 0.236559 0.210079
0.35099399 0.236559 0.204807
0.33380699 0.253746 0.209195
0.35099399 0.253746 0.204386
0.29943201 0.27093399 0.209484
0.31661901 0.27093399 0.208024
0.29943201 0.28812101 0.20628899
0.31661901 0.28812101 0.203555
0.33380699 0.27093399 0.205677
0.35099399 0.27093399 0.20133799
0.33380699 0.28812101 0.199256
0.368182 0.236559 0.202354
0.385369 0.236559 0.199224
0.368182 0.253746 0.19939999
0.29943201 0.305309 0.201299
0.31661901 0.305309 0.19663399
-0.0615055 -0.41872299 0.22985899
-0.062248901 -0.41656601 0.22985899
-0.066491798 -0.39937899 0.22985899
-0.044318002 -0.42467299 0.22985899
-0.035315499 -0.41656601 0.22985899
-0.028826 -0.39937899 0.22985899
-0.066770099 -0.382191 0.22985899
-0.063403502 -0.365004 0.22985899
-0.0615055 -0.35493499 0.22985899
-0.027130499 -0.38663101 0.22985899
-0.027130499 -0.365181 0.22985899
-0.0271428 -0.365004 0.22985899
-0.026898099 -0.382191 0.22985899
-0.059988301 -0.34781599 0.22985899
-0.028555 -0.34781599 0.22985899
-0.054292601 -0.33062899 0.22985899
-0.0310438 -0.33062899 0.22985899
-0.0496893 -0.31344101 0.22985899
-0.0318623 -0.31344101 0.22985899
-0.044318002 -0.297573 0.22985899
-0.095880501 -0.19643401 0.22985899
-0.101542 -0.193129 0.22985899
-0.0615055 -0.224327 0.22985899
-0.073391698 -0.210316 0.22985899
-0.078693002 -0.206963 0.22985899
-0.044318002 -0.245068 0.22985899
-0.0445619 -0.244691 0.22985899
-0.031322598 -0.244691 0.22985899
-0.060090199 -0.227504 0.22985899
-0.027130499 -0.235725 0.22985899
-0.017328599 -0.227504 0.22985899
-0.0099430103 -0.224242 0.22985899
0.0072444701 -0.21927001 0.22985899
-0.130256 -0.177194 0.22985899
-0.13203099 -0.17594101 0.22985899
-0.147443 -0.16508301 0.22985899
-0.156721 -0.15875401 0.22985899
-0.16463099 -0.14708599 0.22985899
-0.16876 -0.14156599 0.22985899
-0.172766 -0.124379 0.22985899
-0.16463099 -0.119372 0.22985899
-0.147443 -0.115099 0.22985899
-0.130256 -0.112613 0.22985899
-0.113068 -0.186157 0.22985899
-0.044318002 -0.125569 0.22985899
-0.048931699 -0.124379 0.22985899
-0.030768801 -0.124379 0.22985899
-0.113068 -0.114509 0.22985899
-0.095880501 -0.118114 0.22985899
-0.078693002 -0.120199 0.22985899
-0.0615055 -0.122295 0.22985899
-0.027130499 -0.122212 0.22985899
-0.0099430103 -0.11285 0.22985899
0.0050489302 -0.107191 0.22985899
0.0072444701 -0.106315 0.22985899
0.075994499 -0.26703101 0.22985899
0.060891401 -0.261879 0.22985899
0.093181998 -0.267281 0.22985899
0.110369 -0.26410699 0.22985899
0.120224 -0.261879 0.22985899
0.041619498 -0.240862 0.22985899
0.032211401 -0.227504 0.22985899
0.058807001 -0.26091599 0.22985899
0.043706998 -0.244691 0.22985899
0.024431899 -0.221083 0.22985899
0.12755699 -0.25951099 0.22985899
0.14474399 -0.248133 0.22985899
0.14805999 -0.244691 0.22985899
0.15777899 -0.227504 0.22985899
0.16193201 -0.215074 0.22985899
0.16531201 -0.210316 0.22985899
0.17911901 -0.19718 0.22985899
0.184919 -0.193129 0.22985899
0.024431899 -0.099833697 0.22985899
0.041619498 -0.094393797 0.22985899
0.0576858 -0.090003997 0.22985899
0.058807001 -0.089743704 0.22985899
0.075994499 -0.083234102 0.22985899
0.087109797 -0.072816402 0.22985899
0.093181998 -0.0608478 0.22985899
0.103736 -0.055629 0.22985899
0.196307 -0.184752 0.22985899
0.208205 -0.17594101 0.22985899
0.213494 -0.17241099 0.22985899
0.227952 -0.15875401 0.22985899
0.230682 -0.153606 0.22985899
