# .PCD v0.7 - Point Cloud Data file format
VERSION 0.7
FIELDS x y z
SIZE 4 4 4
TYPE F F F
COUNT 1 1 1
WIDTH 1513
HEIGHT 1
VIEWPOINT 0 0 0 1 0 0 0
POINTS 1513
DATA ascii
0.16193201 -0.356576 0.161108
0.17775901 -0.34781599 0.161108
0.17911901 -0.34599701 0.161108
-0.306153 -0.038441502 0.161108
-0.302643 -0.021253901 0.161108
-0.302131 -0.017378099 0.161108
-0.29111001 -0.0040664701 0.161108
-0.28494301 -1.729e-05 0.161108
-0.26775599 0.0114916 0.161108
-0.044723101 0.047495998 0.161108
-0.0615055 0.037926499 0.161108
-0.13044401 0.150621 0.161108
-0.130256 0.151233 0.161108
0.42495599 0.0303085 0.161108
0.41974401 0.0161983 0.161108
0.43239501 0.047495998 0.161108
0.436932 0.058496501 0.161108
0.43900201 0.064683601 0.161108
0.44359499 0.081871003 0.161108
0.448706 0.099058598 0.161108
0.45412001 0.115783 0.161108
0.454252 0.116246 0.161108
0.45884401 0.133434 0.161108
0.459833 0.150621 0.161108
0.462143 0.16780899 0.161108
0.46153501 0.18499599 0.161108
0.45412001 0.20330399 0.161108
0.44638601 0.21937101 0.161108
0.454862 0.20218401 0.161108
0.41974401 0.26976401 0.161108
0.418657 0.27093399 0.161108
0.40255699 0.28271899 0.161108
0.39617401 0.28812101 0.161108
0.33380699 0.333471 0.161108
0.32127601 0.33968401 0.161108
0.35099399 0.324397 0.161108
0.31661901 0.342103 0.161108
0.385369 0.30050001 0.161108
0.37987199 0.305309 0.161108
0.368182 0.31339899 0.161108
0.35431501 0.322496 0.161108
0.44147599 0.236559 0.161108
0.436932 0.24614599 0.161108
0.43186501 0.253746 0.161108
-0.078693002 -0.43590701 0.161108
-0.081300102 -0.433754 0.161108
-0.0615055 -0.445986 0.161108
-0.095880501 -0.42067799 0.161108
-0.099852398 -0.41656601 0.161108
-0.105341 -0.39937899 0.161108
-0.044318002 -0.45019001 0.161108
-0.027130499 -0.44853801 0.161108
-0.106382 -0.382191 0.161108
-0.113068 -0.36947101 0.161108
-0.119248 -0.365004 0.161108
-0.130256 -0.35764599 0.161108
-0.078693002 0.038711701 0.161108
-0.095880501 0.036734801 0.161108
-0.250568 0.16559701 0.161108
-0.250958 0.16780899 0.161108
-0.24409799 0.150621 0.161108
-0.26775599 0.17758 0.161108
-0.19900601 -0.33062899 0.149141
-0.18181799 -0.34781599 0.148957
-0.16463099 -0.365004 0.148178
-0.16463099 -0.34781599 0.15519901
-0.18181799 -0.33062899 0.154626
-0.16463099 -0.33062899 0.159815
-0.302131 -0.124379 0.156922
-0.302131 -0.107191 0.156637
-0.319318 -0.090003997 0.149709
-0.302131 -0.090003997 0.156757
-0.319318 -0.072816402 0.15511601
-0.319318 -0.055629 0.15523399
-0.21619301 -0.31344101 0.14793199
-0.19900601 -0.31344101 0.153301
-0.21619301 -0.29625401 0.15243299
-0.19900601 -0.29625401 0.159027
-0.233381 -0.279066 0.149253
-0.233381 -0.261879 0.155219
-0.21619301 -0.279066 0.15894599
-0.18181799 -0.31344101 0.15875401
-0.250568 -0.244691 0.14922699
-0.233381 -0.244691 0.159564
-0.250568 -0.227504 0.155241
0.16193201 -0.365004 0.155764
0.17911901 -0.365004 0.151025
0.17911901 -0.34781599 0.16034999
-0.33650601 -0.038441502 0.145549
-0.33650601 0.0131211 0.14770301
-0.319318 -0.038441502 0.153975
-0.319318 -0.021253901 0.153543
-0.319318 -0.0040664701 0.148537
-0.302131 -0.0040664701 0.15551899
-0.319318 0.0131211 0.150024
-0.302131 0.0131211 0.152032
-0.28494301 0.0131211 0.154801
-0.26775599 0.0131211 0.160318
-0.35369301 0.0303085 0.144538
-0.33650601 0.0303085 0.15098301
-0.35369301 0.047495998 0.146323
-0.33650601 0.047495998 0.150649
-0.35369301 0.064683601 0.150085
-0.33650601 0.064683601 0.152941
-0.35369301 0.081871003 0.145733
-0.33650601 0.081871003 0.152748
-0.319318 0.0303085 0.15544499
-0.302131 0.0303085 0.15711001
-0.319318 0.047495998 0.154184
-0.302131 0.047495998 0.157608
-0.28494301 0.0303085 0.157158
-0.26775599 0.0303085 0.15790901
-0.28494301 0.047495998 0.158852
-0.26775599 0.047495998 0.15861
-0.319318 0.064683601 0.154908
-0.302131 0.064683601 0.15696301
-0.319318 0.081871003 0.156845
-0.302131 0.081871003 0.15847901
-0.33650601 0.099058598 0.146741
-0.33650601 0.116246 0.14546099
-0.33650601 0.133434 0.14765701
-0.35369301 0.150621 0.145776
-0.33650601 0.150621 0.150627
-0.319318 0.099058598 0.151333
-0.302131 0.099058598 0.155707
-0.319318 0.116246 0.14807101
-0.302131 0.116246 0.151853
-0.319318 0.133434 0.150755
-0.302131 0.133434 0.15270101
-0.319318 0.150621 0.15359201
-0.302131 0.150621 0.155516
-0.35369301 0.16780899 0.14847399
-0.33650601 0.16780899 0.15276401
-0.35369301 0.18499599 0.14921901
-0.33650601 0.18499599 0.154062
-0.35369301 0.20218401 0.15034001
-0.33650601 0.20218401 0.155544
-0.35369301 0.21937101 0.150519
-0.33650601 0.21937101 0.15657
-0.319318 0.16780899 0.15605
-0.302131 0.16780899 0.15871701
-0.319318 0.18499599 0.158424
-0.302131 0.18499599 0.16105901
-0.0615055 0.047495998 0.15962701
-0.130256 0.150621 0.16105001
0.41974401 -0.021253901 0.14874101
0.41974401 -0.0040664701 0.155037
0.41974401 0.0131211 0.160209
0.436932 0.0131211 0.14656
0.436932 0.0303085 0.151988
0.436932 0.047495998 0.15782499
0.45412001 0.064683601 0.14745601
0.45412001 0.081871003 0.15199199
0.45412001 0.099058598 0.156133
0.47130701 0.116246 0.14444
0.47130701 0.133434 0.148046
0.47130701 0.150621 0.14927299
0.47130701 0.16780899 0.15127701
0.47130701 0.18499599 0.15056901
0.45412001 0.21937101 0.150943
0.47130701 0.20218401 0.144812
0.41974401 0.27093399 0.160209
0.40255699 0.28812101 0.15632799
0.33380699 0.33968401 0.152317
0.385369 0.305309 0.155533
0.368182 0.322496 0.148673
0.45412001 0.236559 0.14648101
0.436932 0.253746 0.1557
-0.16062699 -0.33062899 0.161108
0.00165319 -0.433754 0.161108
0.0072444701 -0.428516 0.161108
-0.26775599 -0.18355 0.161108
-0.281073 -0.15875401 0.161108
-0.263336 -0.193129 0.161108
0.0256189 -0.39937899 0.161108
0.041619498 -0.38817 0.161108
0.075994499 -0.387748 0.161108
0.110369 -0.38441399 0.161108
0.14474399 -0.367753 0.161108
0.19367599 -0.33062899 0.161108
0.213494 -0.312619 0.161108
0.229489 -0.29625401 0.161108
0.247869 -0.27785099 0.161108
0.265549 -0.261879 0.161108
0.28224501 -0.245287 0.161108
0.295084 -0.227504 0.161108
0.31661901 -0.20633 0.161108
0.33324999 -0.193129 0.161108
0.35099399 -0.161507 0.161108
0.35176599 -0.15875401 0.161108
0.358697 -0.124379 0.161108
0.36838099 -0.090003997 0.161108
0.385369 -0.0577912 0.161108
0.38650101 -0.055629 0.161108
-0.30148301 0.18499599 0.161108
-0.302131 0.185406 0.161108
-0.32126299 0.21937101 0.161108
-0.26494399 0.0131211 0.161108
-0.233381 0.0223037 0.161108
-0.19900601 0.024175599 0.161108
-0.233381 0.059128299 0.161108
-0.26391399 0.081871003 0.161108
-0.204593 0.081871003 0.161108
-0.16463099 0.027892301 0.161108
-0.130256 0.033140399 0.161108
-0.059732798 0.081871003 0.161108
-0.247394 0.116246 0.161108
-0.19900601 0.0873712 0.161108
-0.16463099 0.107466 0.161108
-0.157711 0.116246 0.161108
-0.0615055 0.085189298 0.161108
-0.0703419 0.116246 0.161108
-0.092582703 0.150621 0.161108
-0.095880501 0.156902 0.161108
-0.32479301 0.253746 0.161108
-0.32003701 0.28812101 0.161108
-0.302131 0.31745601 0.161108
-0.29586899 0.322496 0.161108
-0.26775599 0.34495199 0.161108
-0.248374 0.35687101 0.161108
-0.233381 0.36445099 0.161108
-0.19900601 0.38025001 0.161108
-0.164643 0.39124599 0.161108
-0.16463099 0.391249 0.161108
-0.130256 0.39895099 0.161108
-0.095880501 0.403299 0.161108
-0.0615055 0.40733099 0.161108
-0.027130499 0.410097 0.161108
0.0072444701 0.40947101 0.161108
0.40367299 -0.021253901 0.161108
0.41859901 0.0131211 0.161108
0.041619498 0.40854201 0.161108
0.075994499 0.40560001 0.161108
0.110369 0.401281 0.161108
0.14474399 0.39593899 0.161108
0.17911901 0.388219 0.161108
0.16685601 0.39124599 0.161108
0.213494 0.37951899 0.161108
0.247869 0.37045699 0.161108
0.28224501 0.35784301 0.161108
0.284722 0.35687101 0.161108
-0.130256 -0.365004 0.15648299
0.0072444701 -0.433754 0.13866501
-0.302131 -0.193129 0.128778
-0.26775599 -0.193129 0.157149
-0.302131 -0.15875401 0.14439601
0.041619498 -0.39937899 0.151152
0.075994499 -0.39937899 0.15148
0.110369 -0.39937899 0.149542
0.14474399 -0.39937899 0.13862801
0.213494 -0.365004 0.12964401
0.213494 -0.33062899 0.152749
0.247869 -0.33062899 0.12879799
0.247869 -0.29625401 0.15181001
0.28224501 -0.261879 0.15123101
0.31661901 -0.227504 0.144116
0.35099399 -0.193129 0.14133599
0.385369 -0.124379 0.132484
0.385369 -0.090003997 0.14607
0.41974401 -0.055629 0.129867
-0.26775599 0.081871003 0.16077501
-0.26775599 0.116246 0.158558
-0.26775599 0.150621 0.15701599
-0.233381 0.047495998 0.15938801
-0.19900601 0.047495998 0.157783
-0.19900601 0.081871003 0.16077501
-0.16463099 0.047495998 0.15572099
-0.130256 0.047495998 0.157547
-0.16463099 0.081871003 0.156868
-0.130256 0.081871003 0.154558
-0.095880501 0.047495998 0.158767
-0.095880501 0.081871003 0.15551101
-0.0615055 0.081871003 0.160642
-0.130256 0.116246 0.156157
-0.095880501 0.116246 0.156425
-0.095880501 0.150621 0.160385
-0.33650601 0.253746 0.157318
-0.37088099 0.28812101 0.136705
-0.33650601 0.28812101 0.153721
-0.33650601 0.322496 0.14187901
-0.302131 0.322496 0.15901799
-0.302131 0.35687101 0.137271
-0.26775599 0.35687101 0.154268
-0.233381 0.39124599 0.13109601
-0.19900601 0.39124599 0.1486
-0.027130499 0.425621 0.131294
0.0072444701 0.425621 0.12788001
0.17911901 0.39124599 0.155665
0.213494 0.39124599 0.13049901
-0.18098199 -0.37101999 0.13688999
-0.152505 -0.349455 0.156982
-0.073297501 -0.43964601 0.147359
-0.103498 -0.412056 0.147359
-0.044318002 -0.44931701 0.147359
-0.117869 -0.38225999 0.150626
-0.285687 -0.21119 0.135336
-0.31493399 -0.135837 0.139401
-0.25963199 -0.21604601 0.15353601
0.160935 -0.37938201 0.145872
0.193004 -0.34751299 0.15266401
0.38769001 -0.135424 0.128171
0.39364699 -0.104697 0.130915
0.401851 -0.068831697 0.13976499
-0.287808 0.061818998 0.158548
-0.28838101 0.099058598 0.157075
-0.28838101 0.133434 0.155129
-0.290564 0.16943701 0.159088
-0.32205099 0.197331 0.158268
-0.25582901 0.028974401 0.15974
-0.078693002 0.041673001 0.160344
-0.25622699 0.16244499 0.16029
-0.35825601 0.231648 0.147751
-0.381758 0.26749599 0.132534
0.41630101 -0.0040664701 0.157241
0.42864799 -0.032519799 0.13241901
0.30864501 0.352005 0.15133201
-0.078693002 -0.43876299 0.178296
-0.084348299 -0.433754 0.178296
-0.0615055 -0.44768199 0.178296
-0.095880501 -0.41958499 0.178296
-0.099069104 -0.41656601 0.178296
-0.101746 -0.39937899 0.178296
-0.044318002 -0.45193201 0.178296
-0.053521 -0.450941 0.178296
-0.0329847 -0.450941 0.178296
-0.027130499 -0.449689 0.178296
-0.095880501 -0.386419 0.178296
-0.095880501 -0.37170401 0.178296
-0.098287001 -0.365004 0.178296
-0.094346598 -0.382191 0.178296
-0.101676 -0.34781599 0.178296
-0.105098 -0.33062899 0.178296
-0.277978 -0.124379 0.178296
-0.27941 -0.107191 0.178296
-0.27436501 -0.090003997 0.178296
-0.26775599 -0.076092497 0.178296
-0.26775599 -0.058255099 0.178296
-0.27008501 -0.055629 0.178296
-0.19900601 -0.26152101 0.178296
-0.212806 -0.244691 0.178296
-0.21619301 -0.238961 0.178296
-0.22356699 -0.227504 0.178296
-0.25904 -0.15875401 0.178296
-0.26775599 -0.145129 0.178296
-0.26632401 -0.072816402 0.178296
0.093181998 -0.34204099 0.178296
0.075994499 -0.346802 0.178296
0.110369 -0.337257 0.178296
0.123005 -0.33062899 0.178296
0.12755699 -0.327613 0.178296
0.14474399 -0.317626 0.178296
0.151492 -0.31344101 0.178296
0.16193201 -0.30405799 0.178296
0.171029 -0.29625401 0.178296
-0.26877001 -0.038441502 0.178296
-0.26775599 -0.037377499 0.178296
-0.25174901 -0.021253901 0.178296
-0.078693002 0.00480163 0.178296
-0.095880501 0.00349134 0.178296
-0.0615055 0.0038794901 0.178296
-0.044318002 0.0068415399 0.178296
-0.027130499 0.0091757802 0.178296
-0.0099430103 0.0099163102 0.178296
0.0072444701 0.0127031 0.178296
-0.19900601 0.21929701 0.178296
-0.20783301 0.21937101 0.178296
-0.19889399 0.21937101 0.178296
-0.16463099 0.203613 0.178296
-0.176704 0.21937101 0.178296
-0.147443 0.20635501 0.178296
-0.13026901 0.21937101 0.178296
-0.21266299 0.236559 0.178296
-0.21583401 0.253746 0.178296
-0.21619301 0.254978 0.178296
-0.22339 0.27093399 0.178296
-0.233381 0.28399801 0.178296
-0.18181799 0.222644 0.178296
-0.130256 0.219381 0.178296
-0.113068 0.230756 0.178296
-0.102707 0.236559 0.178296
-0.095880501 0.240969 0.178296
-0.078693002 0.24891099 0.178296
-0.0615055 0.25045201 0.178296
-0.044318002 0.249606 0.178296
-0.027130499 0.241494 0.178296
0.0100456 0.0131211 0.178296
0.024431899 0.0142851 0.178296
0.041619498 0.017875301 0.178296
0.075994499 0.078521699 0.178296
0.0659317 0.081871003 0.178296
0.0882724 0.047495998 0.178296
0.093088597 0.064683601 0.178296
0.073308401 0.099058598 0.178296
0.066256098 0.116246 0.178296
0.058807001 0.117676 0.178296
0.0468443 0.133434 0.178296
0.049242899 0.150621 0.178296
0.42839801 0.116246 0.178296
0.432769 0.133434 0.178296
0.436932 0.14750201 0.178296
0.43797499 0.150621 0.178296
0.43933499 0.16780899 0.178296
0.43888399 0.18499599 0.178296
0.436932 0.20190801 0.178296
0.436827 0.20218401 0.178296
0.42929199 0.21937101 0.178296
0.41974401 0.238243 0.178296
0.40821001 0.253746 0.178296
0.385369 0.28168899 0.178296
0.37859401 0.28812101 0.178296
0.421051 0.236559 0.178296
-0.044318002 -0.450941 0.166568
-0.095880501 -0.382191 0.175521
-0.113068 -0.365004 0.16432001
-0.130256 -0.34781599 0.164658
-0.113068 -0.34781599 0.171185
-0.130256 -0.33062899 0.16876701
-0.113068 -0.33062899 0.174261
-0.28494301 -0.124379 0.17206
-0.28494301 -0.107191 0.17275999
-0.28494301 -0.090003997 0.169158
-0.302131 -0.072816402 0.16484299
-0.302131 -0.055629 0.167367
-0.28494301 -0.072816402 0.170278
-0.26775599 -0.072816402 0.17759199
-0.28494301 -0.055629 0.173619
-0.19900601 -0.279066 0.16816901
-0.21619301 -0.261879 0.16589101
-0.19900601 -0.261879 0.178037
-0.16463099 -0.31344101 0.164838
-0.18181799 -0.29625401 0.16637699
-0.16463099 -0.29625401 0.171974
-0.233381 -0.227504 0.16811401
-0.21619301 -0.244691 0.174035
-0.26775599 -0.15875401 0.171249
0.075994499 -0.365004 0.173317
0.075994499 -0.34781599 0.178069
0.093181998 -0.365004 0.171538
0.093181998 -0.34781599 0.176452
0.110369 -0.365004 0.169934
0.110369 -0.34781599 0.17496701
0.12755699 -0.365004 0.167722
0.12755699 -0.34781599 0.17287999
0.14474399 -0.365004 0.162385
0.14474399 -0.34781599 0.169558
0.12755699 -0.33062899 0.17731
0.14474399 -0.33062899 0.17381901
0.16193201 -0.34781599 0.166765
0.16193201 -0.33062899 0.171032
0.17911901 -0.33062899 0.166333
0.16193201 -0.31344101 0.175385
0.17911901 -0.31344101 0.171436
0.17911901 -0.29625401 0.176788
-0.302131 -0.038441502 0.163693
-0.302131 -0.021253901 0.161377
-0.28494301 -0.038441502 0.172116
-0.28494301 -0.021253901 0.168294
-0.26775599 -0.021253901 0.173746
-0.28494301 -0.0040664701 0.163849
-0.26775599 -0.0040664701 0.168688
-0.095880501 0.0131211 0.17156599
-0.078693002 0.0131211 0.17133901
-0.0615055 0.0131211 0.17180499
-0.044318002 0.0131211 0.17408
-0.027130499 0.0131211 0.175225
-0.0099430103 0.0131211 0.17581899
0.0072444701 0.0131211 0.177947
-0.095880501 0.0303085 0.162752
-0.078693002 0.0303085 0.162857
-0.0615055 0.0303085 0.163583
-0.044318002 0.0303085 0.163947
-0.027130499 0.0303085 0.164533
-0.044318002 0.047495998 0.161164
-0.027130499 0.047495998 0.16345499
-0.0099430103 0.0303085 0.166107
0.0072444701 0.0303085 0.16779
-0.0099430103 0.047495998 0.164846
0.0072444701 0.047495998 0.16694599
-0.250568 0.16780899 0.161201
-0.233381 0.150621 0.163056
-0.233381 0.16780899 0.164783
-0.26775599 0.18499599 0.162543
-0.250568 0.18499599 0.16269401
-0.233381 0.18499599 0.16466001
-0.21619301 0.150621 0.16642199
-0.21619301 0.16780899 0.168823
-0.19900601 0.150621 0.168161
-0.19900601 0.16780899 0.17013
-0.21619301 0.18499599 0.170233
-0.19900601 0.18499599 0.172363
-0.26775599 0.20218401 0.16547
-0.250568 0.20218401 0.16511101
-0.233381 0.20218401 0.165852
-0.26775599 0.21937101 0.167602
-0.250568 0.21937101 0.16832601
-0.233381 0.21937101 0.169406
-0.21619301 0.20218401 0.17169499
-0.19900601 0.20218401 0.17471699
-0.21619301 0.21937101 0.17445099
-0.18181799 0.150621 0.168321
-0.18181799 0.16780899 0.17042001
-0.16463099 0.150621 0.168318
-0.16463099 0.16780899 0.171616
-0.18181799 0.18499599 0.17313901
-0.16463099 0.18499599 0.175027
-0.147443 0.150621 0.166228
-0.147443 0.16780899 0.17036501
-0.130256 0.16780899 0.163433
-0.147443 0.18499599 0.173706
-0.130256 0.18499599 0.166702
-0.18181799 0.20218401 0.17554601
-0.16463099 0.20218401 0.178068
-0.18181799 0.21937101 0.177663
-0.147443 0.20218401 0.177036
-0.130256 0.20218401 0.17077699
-0.130256 0.21937101 0.17829099
-0.113068 0.18499599 0.161789
-0.113068 0.20218401 0.164351
-0.095880501 0.18499599 0.163544
-0.095880501 0.20218401 0.16470399
-0.113068 0.21937101 0.16949099
-0.095880501 0.21937101 0.167518
-0.078693002 0.18499599 0.16900399
-0.078693002 0.20218401 0.168928
-0.0615055 0.18499599 0.17367899
-0.0615055 0.20218401 0.17321201
-0.078693002 0.21937101 0.170633
-0.0615055 0.21937101 0.171964
-0.044318002 0.18499599 0.176186
-0.044318002 0.20218401 0.17694999
-0.027130499 0.18499599 0.173849
-0.027130499 0.20218401 0.176465
-0.044318002 0.21937101 0.17374501
-0.027130499 0.21937101 0.175791
-0.233381 0.236559 0.172309
-0.21619301 0.236559 0.176274
-0.233381 0.253746 0.17469101
-0.21619301 0.253746 0.17812601
-0.233381 0.27093399 0.177343
-0.095880501 0.236559 0.17471001
-0.078693002 0.236559 0.173278
-0.0615055 0.236559 0.17355201
-0.044318002 0.236559 0.174061
-0.027130499 0.236559 0.177219
0.024431899 0.0303085 0.170092
0.041619498 0.0303085 0.173613
0.024431899 0.047495998 0.169929
0.041619498 0.047495998 0.17205399
0.041619498 0.064683601 0.172984
0.058807001 0.047495998 0.17344899
0.058807001 0.064683601 0.17452601
0.075994499 0.047495998 0.17590401
0.075994499 0.064683601 0.176157
0.041619498 0.081871003 0.17371599
0.058807001 0.081871003 0.17651799
0.041619498 0.099058598 0.174152
0.058807001 0.099058598 0.17590401
0.041619498 0.116246 0.175951
0.058807001 0.116246 0.17797101
0.041619498 0.133434 0.17650101
0.041619498 0.150621 0.17509501
0.45412001 0.116246 0.161236
0.436932 0.116246 0.17354199
0.436932 0.133434 0.175861
0.45412001 0.133434 0.16529
0.45412001 0.150621 0.166649
0.45412001 0.16780899 0.16876
0.45412001 0.18499599 0.167749
0.436932 0.20218401 0.178232
0.45412001 0.20218401 0.161919
0.436932 0.21937101 0.17312101
0.41974401 0.253746 0.169689
0.385369 0.28812101 0.173099
0.436932 0.236559 0.165628
-0.078693002 -0.443124 0.195484
-0.088728704 -0.433754 0.195484
-0.0615055 -0.4454 0.195484
-0.0896319 -0.41656601 0.195484
-0.088958301 -0.39937899 0.195484
-0.044318002 -0.44937101 0.195484
-0.027130499 -0.44539401 0.195484
-0.086750403 -0.382191 0.195484
-0.0865224 -0.365004 0.195484
-0.086233899 -0.34781599 0.195484
-0.0840948 -0.33062899 0.195484
-0.19900601 -0.24492501 0.195484
-0.199268 -0.244691 0.195484
-0.212373 -0.227504 0.195484
-0.082174197 -0.31344101 0.195484
-0.079984501 -0.29625401 0.195484
-0.0786983 -0.279066 0.195484
-0.095880501 -0.267984 0.195484
-0.22454 -0.193129 0.195484
-0.227732 -0.17594101 0.195484
-0.233381 -0.16305999 0.195484
-0.235907 -0.15875401 0.195484
-0.246628 -0.14156599 0.195484
-0.250568 -0.136388 0.195484
-0.25647399 -0.124379 0.195484
-0.25676101 -0.107191 0.195484
-0.250568 -0.097122699 0.195484
-0.24398699 -0.090003997 0.195484
-0.233381 -0.081165597 0.195484
0.0155265 -0.33062899 0.195484
0.016048601 -0.31344101 0.195484
0.024431899 -0.30109799 0.195484
0.041619498 -0.30072701 0.195484
0.093181998 -0.29800701 0.195484
0.075994499 -0.29983199 0.195484
0.108331 -0.29625401 0.195484
-0.044318002 -0.031317402 0.195484
-0.0615055 -0.028467201 0.195484
-0.027130499 -0.035095699 0.195484
-0.0099430103 -0.0288286 0.195484
-0.00117004 -0.021253901 0.195484
0.0072444701 -0.0180932 0.195484
-0.113068 0.28392401 0.195484
-0.124701 0.28812101 0.195484
-0.095880501 0.27458599 0.195484
-0.078693002 0.26979199 0.195484
-0.088024698 0.27093399 0.195484
-0.0615055 0.2703 0.195484
-0.044318002 0.26978299 0.195484
-0.027130499 0.268103 0.195484
0.024431899 -0.0142776 0.195484
0.041619498 -0.0106874 0.195484
0.376497 0.081871003 0.195484
0.385369 0.098302297 0.195484
0.403054 0.150621 0.195484
0.407217 0.16780899 0.195484
0.40824699 0.18499599 0.195484
0.40542701 0.20218401 0.195484
0.40255699 0.21438999 0.195484
0.40103099 0.21937101 0.195484
0.35099399 0.28368199 0.195484
0.34503201 0.28812101 0.195484
0.385369 0.2481 0.195484
0.381641 0.253746 0.195484
0.392941 0.236559 0.195484
0.368182 0.26930001 0.195484
0.36636001 0.27093399 0.195484
0.0067014699 -0.365004 0.195484
0.0072444701 -0.363078 0.195484
-0.22077 -0.072816402 0.195484
-0.21619301 -0.069680601 0.195484
-0.19900601 -0.062552601 0.195484
-0.18745001 -0.055629 0.195484
-0.095880501 -0.41656601 0.18466599
-0.095880501 -0.39937899 0.1846
-0.044318002 -0.450941 0.19035301
-0.095880501 -0.365004 0.181905
-0.095880501 -0.34781599 0.18369301
-0.095880501 -0.33062899 0.184232
-0.26775599 -0.124379 0.186793
-0.26775599 -0.107191 0.188765
-0.26775599 -0.090003997 0.18360201
-0.26775599 -0.055629 0.179041
-0.21619301 -0.227504 0.189468
-0.095880501 -0.31344101 0.185403
-0.095880501 -0.29625401 0.18556701
-0.095880501 -0.279066 0.18795501
-0.233381 -0.193129 0.188145
-0.233381 -0.17594101 0.192099
-0.26775599 -0.14156599 0.180354
-0.250568 -0.15875401 0.185131
-0.250568 -0.14156599 0.192919
-0.250568 -0.090003997 0.19192199
-0.250568 -0.072816402 0.184962
-0.233381 -0.072816402 0.19100299
-0.250568 -0.055629 0.18423501
-0.233381 -0.055629 0.188208
0.075994499 -0.33062899 0.182965
0.093181998 -0.33062899 0.182478
0.110369 -0.33062899 0.180428
0.024431899 -0.33062899 0.19017801
0.024431899 -0.31344101 0.191274
0.041619498 -0.33062899 0.185647
0.041619498 -0.31344101 0.189226
0.075994499 -0.31344101 0.188319
0.093181998 -0.31344101 0.187116
0.110369 -0.31344101 0.18561999
0.110369 -0.29625401 0.19512001
0.12755699 -0.31344101 0.18346301
0.14474399 -0.31344101 0.18002699
0.12755699 -0.29625401 0.19087701
0.14474399 -0.29625401 0.186116
0.16193201 -0.29625401 0.180797
-0.26775599 -0.038441502 0.178661
-0.250568 -0.038441502 0.184027
-0.233381 -0.038441502 0.187371
-0.250568 -0.021253901 0.17859501
-0.233381 -0.021253901 0.18188
-0.095880501 -0.021253901 0.19069301
-0.095880501 -0.0040664701 0.181815
-0.078693002 -0.021253901 0.190277
-0.078693002 -0.0040664701 0.182523
-0.0615055 -0.021253901 0.190327
-0.0615055 -0.0040664701 0.18256301
-0.044318002 -0.021253901 0.187714
-0.027130499 -0.021253901 0.18379
-0.0099430103 -0.021253901 0.19096901
-0.044318002 -0.0040664701 0.182265
-0.027130499 -0.0040664701 0.18267301
-0.0099430103 -0.0040664701 0.18587001
0.0072444701 -0.0040664701 0.188181
-0.19900601 0.21937101 0.178326
-0.16463099 0.21937101 0.18001901
-0.147443 0.21937101 0.18154299
-0.19900601 0.236559 0.18295801
-0.19900601 0.253746 0.18529101
-0.21619301 0.27093399 0.179322
-0.19900601 0.27093399 0.18492401
-0.233381 0.28812101 0.178325
-0.21619301 0.28812101 0.17986199
-0.19900601 0.28812101 0.184147
-0.18181799 0.236559 0.18220299
-0.16463099 0.236559 0.18237799
-0.18181799 0.253746 0.187291
-0.16463099 0.253746 0.186719
-0.147443 0.236559 0.185196
-0.130256 0.236559 0.185847
-0.147443 0.253746 0.18781701
-0.130256 0.253746 0.18963601
-0.18181799 0.27093399 0.190561
-0.16463099 0.27093399 0.19107801
-0.18181799 0.28812101 0.190193
-0.16463099 0.28812101 0.19299001
-0.113068 0.236559 0.18295801
-0.113068 0.253746 0.18997
-0.095880501 0.253746 0.188907
-0.078693002 0.253746 0.18600801
-0.0615055 0.253746 0.182319
-0.130256 0.27093399 0.191816
-0.113068 0.27093399 0.193507
-0.095880501 0.27093399 0.194883
-0.130256 0.28812101 0.195209
-0.044318002 0.253746 0.181676
-0.027130499 0.253746 0.184174
0.024431899 -0.0040664701 0.189417
0.041619498 -0.0040664701 0.191929
0.024431899 0.0131211 0.179335
0.041619498 0.0131211 0.18164
0.075994499 0.081871003 0.17889901
0.093181998 0.047495998 0.17924701
0.093181998 0.064683601 0.178312
0.110369 0.047495998 0.182246
0.110369 0.064683601 0.180948
0.093181998 0.081871003 0.17885099
0.110369 0.081871003 0.18021099
0.075994499 0.099058598 0.178744
0.075994499 0.116246 0.179187
0.058807001 0.133434 0.181017
0.075994499 0.133434 0.18249001
0.058807001 0.150621 0.181364
0.075994499 0.150621 0.184319
0.093181998 0.099058598 0.18178201
0.110369 0.099058598 0.18262599
0.093181998 0.116246 0.18307699
0.110369 0.116246 0.185114
0.093181998 0.133434 0.183374
0.110369 0.133434 0.186046
0.093181998 0.150621 0.185967
0.110369 0.150621 0.188558
0.385369 0.081871003 0.192819
0.41974401 0.150621 0.18866999
0.41974401 0.16780899 0.18949901
0.41974401 0.18499599 0.18943
0.41974401 0.20218401 0.187957
0.40255699 0.21937101 0.194603
0.41974401 0.21937101 0.18543801
0.41974401 0.116246 0.18320701
0.41974401 0.133434 0.18596999
0.436932 0.150621 0.179019
0.436932 0.16780899 0.17981701
0.436932 0.18499599 0.17956001
0.35099399 0.28812101 0.192941
0.385369 0.253746 0.193423
0.40255699 0.236559 0.190557
0.41974401 0.236559 0.17952
0.40255699 0.253746 0.18326101
0.368182 0.27093399 0.194617
0.385369 0.27093399 0.184976
0.368182 0.28812101 0.18426999
-0.0113853 -0.433754 0.195484
0.0019952699 -0.39937899 0.195484
-0.16463099 -0.26408401 0.195484
-0.171112 -0.261879 0.195484
-0.130256 -0.26944 0.195484
0.110369 -0.29582599 0.195484
0.14474399 -0.28068501 0.195484
0.172833 -0.261879 0.195484
0.17911901 -0.257007 0.195484
0.213494 -0.23236801 0.195484
0.22187901 -0.227504 0.195484
0.247869 -0.210866 0.195484
0.266927 -0.193129 0.195484
0.28224501 -0.174438 0.195484
0.30165401 -0.15875401 0.195484
0.31661901 -0.13627701 0.195484
0.31944799 -0.124379 0.195484
0.32294199 -0.090003997 0.195484
0.32442999 -0.055629 0.195484
-0.16463099 -0.040981099 0.195484
-0.130256 -0.032824501 0.195484
-0.095880501 -0.0296304 0.195484
-0.130256 0.28948399 0.195484
-0.133588 0.322496 0.195484
-0.130256 0.32422 0.195484
0.0072444701 0.258591 0.195484
-0.095880501 0.34648201 0.195484
-0.062226601 0.35687101 0.195484
-0.0615055 0.35704401 0.195484
-0.027130499 0.36250499 0.195484
0.0072444701 0.36291099 0.195484
0.075994499 -0.00173259 0.195484
0.110369 0.00334156 0.195484
0.14474399 0.0056155901 0.195484
0.177146 0.0131211 0.195484
0.17911901 0.0139989 0.195484
0.213494 0.034946099 0.195484
0.226188 0.047495998 0.195484
0.238392 0.081871003 0.195484
0.075994499 0.213258 0.195484
0.066283099 0.21937101 0.195484
0.110369 0.19216099 0.195484
0.14474399 0.208505 0.195484
0.213494 0.138789 0.195484
0.207855 0.150621 0.195484
0.227889 0.116246 0.195484
0.189601 0.18499599 0.195484
0.17911901 0.20059399 0.195484
0.33392799 -0.021253901 0.195484
0.34654501 0.0131211 0.195484
0.35099399 0.029564301 0.195484
0.356433 0.047495998 0.195484
0.39249301 0.116246 0.195484
0.041619498 0.23930401 0.195484
0.0199177 0.253746 0.195484
0.17911901 0.35324201 0.195484
0.145454 0.35687101 0.195484
0.213494 0.34835899 0.195484
0.247869 0.338783 0.195484
0.28224501 0.324141 0.195484
0.041619498 0.36015201 0.195484
0.075994499 0.357427 0.195484
0.110369 0.359231 0.195484
0.14474399 0.35701901 0.195484
0.31661901 0.30667001 0.195484
0.28582701 0.322496 0.195484
0.0072444701 -0.39937899 0.18876299
0.0072444701 -0.365004 0.19508199
-0.130256 -0.29625401 0.1787
-0.19900601 -0.055629 0.194368
0.041619498 -0.365004 0.176669
0.213494 -0.29625401 0.167409
0.17911901 -0.261879 0.19212499
0.213494 -0.261879 0.17985401
0.247869 -0.261879 0.16852801
0.247869 -0.227504 0.186093
0.28224501 -0.227504 0.16957501
0.28224501 -0.193129 0.187263
0.31661901 -0.193129 0.16982099
0.31661901 -0.15875401 0.18786199
0.35099399 -0.15875401 0.16192301
0.35099399 -0.124379 0.169496
0.35099399 -0.090003997 0.17479999
0.35099399 -0.055629 0.18244401
0.385369 -0.055629 0.161893
-0.302131 0.21937101 0.16485
-0.19900601 -0.021253901 0.185822
-0.233381 0.0131211 0.165032
-0.19900601 0.0131211 0.167349
-0.16463099 -0.021253901 0.188372
-0.130256 -0.021253901 0.190283
-0.16463099 0.0131211 0.169901
-0.130256 0.0131211 0.171005
-0.233381 0.081871003 0.16219699
-0.027130499 0.081871003 0.16698501
0.0072444701 0.081871003 0.17046
-0.233381 0.116246 0.161773
-0.19900601 0.116246 0.163965
-0.16463099 0.116246 0.16259401
-0.0615055 0.116246 0.163065
-0.0615055 0.150621 0.167128
-0.027130499 0.116246 0.167136
0.0072444701 0.116246 0.170084
-0.027130499 0.150621 0.168037
0.0072444701 0.150621 0.16745099
0.0072444701 0.18499599 0.17041101
0.0072444701 0.21937101 0.178021
-0.302131 0.253746 0.16658799
-0.26775599 0.253746 0.17178901
-0.302131 0.28812101 0.16688301
-0.26775599 0.28812101 0.173802
-0.26775599 0.322496 0.169076
-0.233381 0.322496 0.17649999
-0.19900601 0.322496 0.182436
-0.233381 0.35687101 0.165787
-0.19900601 0.35687101 0.174686
-0.16463099 0.322496 0.189656
-0.16463099 0.35687101 0.18066899
-0.130256 0.35687101 0.185546
0.0072444701 0.253746 0.192431
-0.095880501 0.35687101 0.19067501
-0.16463099 0.39124599 0.161112
-0.130256 0.39124599 0.168708
-0.095880501 0.39124599 0.17303599
-0.0615055 0.39124599 0.176604
-0.027130499 0.39124599 0.17984401
0.0072444701 0.39124599 0.18188199
0.075994499 0.0131211 0.18714499
0.110369 0.0131211 0.19037899
0.14474399 0.0131211 0.19284099
0.14474399 0.047495998 0.186922
0.14474399 0.081871003 0.18390401
0.17911901 0.047495998 0.190493
0.213494 0.047495998 0.19414499
0.17911901 0.081871003 0.188232
0.213494 0.081871003 0.19205099
0.14474399 0.116246 0.185018
0.14474399 0.150621 0.188747
0.041619498 0.18499599 0.177258
0.075994499 0.18499599 0.18840601
0.041619498 0.21937101 0.18677001
0.110369 0.18499599 0.194318
0.14474399 0.18499599 0.192334
0.17911901 0.116246 0.188289
0.213494 0.116246 0.193405
0.17911901 0.150621 0.189804
0.17911901 0.18499599 0.193258
0.35099399 -0.021253901 0.189586
0.35099399 0.0131211 0.194169
0.385369 -0.021253901 0.172534
0.385369 0.0131211 0.180645
0.385369 0.047495998 0.186904
0.41974401 0.047495998 0.16951901
0.41974401 0.081871003 0.17763001
0.17911901 0.35687101 0.19343001
0.213494 0.35687101 0.189779
0.247869 0.35687101 0.18007299
0.28224501 0.35687101 0.16263901
0.041619498 0.39124599 0.181034
0.075994499 0.39124599 0.178817
0.110369 0.39124599 0.175272
0.14474399 0.39124599 0.168262
0.31661901 0.322496 0.184637
0.35099399 0.322496 0.163707
-0.137848 -0.34167999 0.163911
-0.018224699 -0.44222599 0.178296
-0.27655399 -0.137715 0.173658
-0.152505 -0.315348 0.167749
-0.184183 -0.28103399 0.17471801
-0.223906 -0.21604601 0.18583199
-0.19203199 -0.25755101 0.18682501
-0.109474 -0.31835201 0.179318
-0.109631 -0.2818 0.188638
-0.24938899 -0.171536 0.18089999
-0.219302 -0.067184202 0.193645
0.022947701 -0.34749499 0.189757
0.064536102 -0.34764701 0.179161
0.093181998 -0.37343499 0.167401
0.12755699 -0.369436 0.164451
0.058807001 -0.31478301 0.189521
0.12755699 -0.29305401 0.192616
0.193004 -0.31330401 0.167364
0.16478901 -0.284208 0.186441
-0.28483501 0.199387 0.16378
-0.219631 -0.038441502 0.18753
-0.25466099 -0.0064185299 0.171057
-0.078693002 -0.0243719 0.192453
-0.107339 -0.00280684 0.18061
-0.109631 0.025285101 0.165508
-0.040607002 0.061246 0.162764
-0.0099430103 0.061246 0.166538
-0.21619301 0.136871 0.164675
-0.18181799 0.136871 0.166272
-0.152972 0.136871 0.16387101
-0.115933 0.171822 0.162947
-0.081007898 0.168855 0.165929
-0.044318002 0.17124601 0.171776
-0.0133805 0.20218401 0.174907
-0.247703 0.233694 0.170687
-0.244839 0.27311099 0.175708
-0.147443 0.26847801 0.190752
-0.21619301 0.301871 0.180254
-0.18181799 0.301871 0.187884
-0.015672199 0.237381 0.180989
0.055369399 0.0019511 0.190336
0.0538962 0.0309877 0.177443
0.027296601 0.061818998 0.17101499
0.0923637 0.036037698 0.18220299
0.124119 0.064683601 0.18284599
0.0278695 0.099058598 0.17287301
0.0278695 0.133434 0.173016
0.124119 0.099058598 0.183375
0.124119 0.133434 0.18669701
0.0572129 0.16207901 0.18079001
0.093181998 0.164371 0.18831401
0.42421001 0.035374802 0.163211
0.43190199 0.063652404 0.165264
0.410956 0.133434 0.18976299
0.43816999 0.105446 0.169654
0.40082899 0.26975101 0.173225
0.33171901 0.33077401 0.165463
0.36909699 0.30185401 0.17075001
-0.0615055 -0.442588 0.212671
-0.071522102 -0.433754 0.212671
-0.078693002 -0.421242 0.212671
-0.082400002 -0.41656601 0.212671
-0.082956202 -0.39937899 0.212671
-0.044318002 -0.44199499 0.212671
-0.0285914 -0.433754 0.212671
-0.027130499 -0.432522 0.212671
-0.079255201 -0.382191 0.212671
-0.078693002 -0.37928501 0.212671
-0.076804802 -0.365004 0.212671
-0.073508598 -0.34781599 0.212671
-0.069891602 -0.33062899 0.212671
-0.0101463 -0.365004 0.212671
-0.0099430103 -0.36323601 0.212671
-0.0084669003 -0.34781599 0.212671
-0.0081348401 -0.33062899 0.212671
-0.068740897 -0.31344101 0.212671
-0.065375797 -0.29625401 0.212671
-0.062558897 -0.279066 0.212671
-0.063843101 -0.261879 0.212671
-0.00906038 -0.31344101 0.212671
-0.0099430103 -0.301337 0.212671
-0.0106143 -0.29625401 0.212671
-0.0114566 -0.279066 0.212671
-0.0099430103 -0.26784101 0.212671
-0.0080269603 -0.261879 0.212671
-0.068904497 -0.244691 0.212671
-0.078693002 -0.23389 0.212671
-0.095880501 -0.235128 0.212671
0.0072444701 -0.25419101 0.212671
-0.19900601 -0.18208 0.212671
-0.199535 -0.17594101 0.212671
-0.204358 -0.15875401 0.212671
-0.213956 -0.14156599 0.212671
-0.21619301 -0.13787299 0.212671
-0.223864 -0.124379 0.212671
-0.19806799 -0.193129 0.212671
-0.222018 -0.107191 0.212671
-0.21619301 -0.101628 0.212671
-0.19900601 -0.093696304 0.212671
-0.18181799 -0.090903498 0.212671
-0.16463099 -0.090248302 0.212671
0.024431899 -0.26816499 0.212671
0.017952301 -0.261879 0.212671
0.041619498 -0.275307 0.212671
-0.0056644701 -0.055629 0.212671
0.0072444701 -0.047573101 0.212671
-0.078693002 -0.433754 0.207105
-0.027130499 -0.433754 0.21158101
-0.078693002 -0.365004 0.209466
-0.078693002 -0.34781599 0.20523
-0.078693002 -0.33062899 0.201186
-0.0099430103 -0.365004 0.21241
0.0072444701 -0.34781599 0.198533
0.0072444701 -0.33062899 0.201068
-0.078693002 -0.31344101 0.19862001
-0.078693002 -0.29625401 0.196712
-0.078693002 -0.279066 0.19549
-0.095880501 -0.261879 0.20122001
-0.078693002 -0.261879 0.20249
0.0072444701 -0.31344101 0.201271
-0.0099430103 -0.29625401 0.21194001
0.0072444701 -0.29625401 0.200542
-0.0099430103 -0.279066 0.211289
0.0072444701 -0.279066 0.203352
0.0072444701 -0.261879 0.20838501
-0.095880501 -0.244691 0.209263
-0.078693002 -0.244691 0.20789599
-0.21619301 -0.193129 0.201831
-0.21619301 -0.17594101 0.202574
-0.19900601 -0.193129 0.212275
-0.233381 -0.15875401 0.196941
-0.21619301 -0.15875401 0.20614199
-0.233381 -0.14156599 0.202803
-0.250568 -0.124379 0.19939999
-0.233381 -0.124379 0.207867
-0.21619301 -0.14156599 0.211528
-0.250568 -0.107191 0.199292
-0.233381 -0.107191 0.207781
-0.233381 -0.090003997 0.20042799
-0.21619301 -0.090003997 0.206256
-0.19900601 -0.090003997 0.21043999
-0.21619301 -0.072816402 0.196622
-0.19900601 -0.072816402 0.19947
-0.18181799 -0.090003997 0.21211401
-0.16463099 -0.090003997 0.212485
-0.18181799 -0.072816402 0.20138
-0.16463099 -0.072816402 0.202794
-0.18181799 -0.055629 0.196299
-0.16463099 -0.055629 0.19841801
0.024431899 -0.29625401 0.19758099
0.041619498 -0.29625401 0.198412
0.024431899 -0.279066 0.20503099
0.041619498 -0.279066 0.209464
0.075994499 -0.29625401 0.198577
0.093181998 -0.29625401 0.19728699
-0.0615055 -0.055629 0.205061
-0.0615055 -0.038441502 0.201454
-0.044318002 -0.055629 0.207075
-0.044318002 -0.038441502 0.201922
-0.027130499 -0.055629 0.209343
-0.027130499 -0.038441502 0.201378
-0.0099430103 -0.055629 0.211879
-0.0099430103 -0.038441502 0.205422
0.0072444701 -0.038441502 0.20849299
0.0072444701 -0.021253901 0.19763701
-0.113068 0.28812101 0.196431
-0.095880501 0.28812101 0.198033
-0.078693002 0.27093399 0.19575
-0.0615055 0.27093399 0.19569799
-0.078693002 0.28812101 0.199423
-0.0615055 0.28812101 0.200314
0.024431899 -0.021253901 0.200555
0.041619498 -0.021253901 0.202364
0.28224501 0.081871003 0.201398
0.28224501 0.099058598 0.20285501
0.29943201 0.081871003 0.199763
0.29943201 0.099058598 0.20296399
0.31661901 0.081871003 0.197785
0.31661901 0.099058598 0.201903
0.28224501 0.116246 0.204482
0.29943201 0.116246 0.205349
0.31661901 0.116246 0.203144
0.33380699 0.081871003 0.20057601
0.33380699 0.099058598 0.202968
0.35099399 0.081871003 0.19997901
0.35099399 0.099058598 0.202703
0.33380699 0.116246 0.20372599
0.35099399 0.116246 0.20529599
0.28224501 0.133434 0.20657501
0.29943201 0.133434 0.208168
0.31661901 0.133434 0.20491999
0.28224501 0.150621 0.20832901
0.29943201 0.150621 0.210618
0.31661901 0.150621 0.207755
0.33380699 0.133434 0.204292
0.35099399 0.133434 0.20655701
0.33380699 0.150621 0.205368
0.35099399 0.150621 0.20726299
0.368182 0.081871003 0.19730499
0.368182 0.099058598 0.20006
0.385369 0.099058598 0.19559599
0.368182 0.116246 0.202378
0.385369 0.116246 0.197799
0.368182 0.133434 0.204257
0.385369 0.133434 0.199715
0.368182 0.150621 0.205954
0.385369 0.150621 0.201967
0.28224501 0.16780899 0.20952199
0.29943201 0.16780899 0.21133099
0.31661901 0.16780899 0.211007
0.28224501 0.18499599 0.210539
0.29943201 0.18499599 0.211381
0.31661901 0.18499599 0.21262801
0.33380699 0.16780899 0.20583899
0.35099399 0.16780899 0.206797
0.33380699 0.18499599 0.206982
0.35099399 0.18499599 0.206369
0.28224501 0.20218401 0.21190199
0.29943201 0.20218401 0.21188401
0.31661901 0.20218401 0.212633
0.28224501 0.21937101 0.212264
0.29943201 0.21937101 0.212098
0.31661901 0.21937101 0.212611
0.33380699 0.20218401 0.20914
0.35099399 0.20218401 0.205661
0.33380699 0.21937101 0.210354
0.35099399 0.21937101 0.20500299
0.368182 0.16780899 0.207812
0.385369 0.16780899 0.20345899
0.368182 0.18499599 0.20879
0.385369 0.18499599 0.203918
0.40255699 0.150621 0.195692
0.40255699 0.16780899 0.197469
0.40255699 0.18499599 0.198053
0.368182 0.20218401 0.207086
0.385369 0.20218401 0.20407701
0.368182 0.21937101 0.20496801
0.385369 0.21937101 0.203199
0.40255699 0.20218401 0.196979
0.28224501 0.236559 0.21179099
0.29943201 0.236559 0.211788
0.31661901 0.236559 0.212119
0.28224501 0.253746 0.211464
0.29943201 0.253746 0.211124
0.31661901 0.253746 0.21057899
0.33380699 0.236559 0.210136
0.35099399 0.236559 0.20482901
0.33380699 0.253746 0.209235
0.35099399 0.253746 0.2043
0.28224501 0.27093399 0.21043301
0.29943201 0.27093399 0.209497
0.31661901 0.27093399 0.207946
0.28224501 0.28812101 0.20815
0.29943201 0.28812101 0.206581
0.31661901 0.28812101 0.203528
0.33380699 0.27093399 0.205736
0.35099399 0.27093399 0.201564
0.33380699 0.28812101 0.199157
0.368182 0.236559 0.20224801
0.385369 0.236559 0.19938099
0.368182 0.253746 0.19944
-0.0615055 -0.416657 0.22985899
-0.061524302 -0.41656601 0.22985899
-0.066142 -0.39937899 0.22985899
-0.044318002 -0.42578 0.22985899
-0.0344592 -0.41656601 0.22985899
-0.0296332 -0.39937899 0.22985899
-0.067123301 -0.382191 0.22985899
-0.063321903 -0.365004 0.22985899
-0.0615055 -0.35649601 0.22985899
-0.0275458 -0.382191 0.22985899
-0.027833899 -0.365004 0.22985899
-0.059511799 -0.34781599 0.22985899
-0.029660299 -0.34781599 0.22985899
-0.053985301 -0.33062899 0.22985899
-0.032549601 -0.33062899 0.22985899
-0.050638899 -0.31344101 0.22985899
-0.033471599 -0.31344101 0.22985899
-0.044318002 -0.29813799 0.22985899
-0.0615055 -0.233152 0.22985899
-0.065505698 -0.227504 0.22985899
-0.044318002 -0.240888 0.22985899
-0.027130499 -0.234735 0.22985899
-0.016352899 -0.227504 0.22985899
-0.0099430103 -0.224448 0.22985899
0.0072444701 -0.219152 0.22985899
-0.16463099 -0.147164 0.22985899
-0.16823 -0.14156599 0.22985899
-0.17318299 -0.124379 0.22985899
-0.16463099 -0.119173 0.22985899
0.041619498 -0.240905 0.22985899
0.0315696 -0.227504 0.22985899
0.024431899 -0.22103301 0.22985899
-0.0615055 -0.433754 0.223469
-0.078693002 -0.41656601 0.21626399
-0.078693002 -0.39937899 0.21767201
-0.044318002 -0.433754 0.22163001
-0.027130499 -0.41656601 0.222782
-0.027130499 -0.39937899 0.227382
-0.078693002 -0.382191 0.213552
-0.0615055 -0.34781599 0.227751
-0.0615055 -0.33062899 0.222818
-0.027130499 -0.382191 0.229377
-0.027130499 -0.365004 0.229184
-0.027130499 -0.34781599 0.228065
-0.027130499 -0.33062899 0.226735
-0.0099430103 -0.34781599 0.214351
-0.0099430103 -0.33062899 0.214342
-0.0615055 -0.31344101 0.221239
-0.0615055 -0.29625401 0.21740299
-0.0615055 -0.279066 0.213919
-0.0615055 -0.261879 0.215536
-0.027130499 -0.31344101 0.226059
-0.044318002 -0.29625401 0.22882
-0.027130499 -0.29625401 0.225237
-0.0099430103 -0.31344101 0.21350101
-0.044318002 -0.279066 0.226386
-0.027130499 -0.279066 0.224307
-0.044318002 -0.261879 0.22604901
-0.027130499 -0.261879 0.22356801
-0.0099430103 -0.261879 0.21435399
-0.0615055 -0.244691 0.21987499
-0.095880501 -0.227504 0.215809
-0.078693002 -0.227504 0.21713001
-0.044318002 -0.244691 0.228154
-0.027130499 -0.244691 0.22543401
-0.0099430103 -0.244691 0.220254
0.0072444701 -0.244691 0.21743301
-0.0099430103 -0.227504 0.227486
0.0072444701 -0.227504 0.22390901
-0.19900601 -0.17594101 0.21290299
-0.19900601 -0.15875401 0.21504299
-0.19900601 -0.14156599 0.21919601
-0.21619301 -0.124379 0.216323
-0.19900601 -0.124379 0.222543
-0.18181799 -0.193129 0.217815
-0.18181799 -0.17594101 0.218894
-0.16463099 -0.193129 0.221752
-0.16463099 -0.17594101 0.223478
-0.18181799 -0.15875401 0.22097
-0.16463099 -0.15875401 0.22711
-0.18181799 -0.14156599 0.223749
-0.18181799 -0.124379 0.226924
-0.21619301 -0.107191 0.21496101
-0.19900601 -0.107191 0.219584
-0.18181799 -0.107191 0.222572
-0.16463099 -0.107191 0.224499
0.024431899 -0.261879 0.216341
0.041619498 -0.261879 0.222148
0.024431899 -0.244691 0.221756
0.041619498 -0.244691 0.228494
0.024431899 -0.227504 0.227461
0.0072444701 -0.055629 0.214643
-0.095880501 -0.199039 0.22985899
-0.108744 -0.193129 0.22985899
-0.130256 -0.18121 0.22985899
-0.156942 -0.15875401 0.22985899
-0.130256 -0.11397 0.22985899
-0.095880501 -0.116331 0.22985899
-0.0615055 -0.122152 0.22985899
-0.027130499 -0.119382 0.22985899
0.0072444701 -0.106005 0.22985899
0.075994499 -0.26445699 0.22985899
0.070067599 -0.261879 0.22985899
0.110369 -0.26507801 0.22985899
0.120246 -0.261879 0.22985899
0.14474399 -0.24448401 0.22985899
0.154319 -0.227504 0.22985899
0.17911901 -0.198048 0.22985899
0.18518101 -0.193129 0.22985899
0.041619498 -0.092720903 0.22985899
0.049084801 -0.090003997 0.22985899
0.075994499 -0.077746399 0.22985899
0.110369 -0.061092202 0.22985899
0.12883399 -0.055629 0.22985899
0.213494 -0.171829 0.22985899
0.224217 -0.15875401 0.22985899
0.23852301 -0.124379 0.22985899
0.213494 -0.0607825 0.22985899
0.18221501 -0.055629 0.22985899
0.247869 -0.113321 0.22985899
0.24984901 -0.090003997 0.22985899
0.247869 -0.0869864 0.22985899
0.14474399 -0.053789999 0.22985899
0.17911901 -0.055227499 0.22985899
-0.16463099 -0.261879 0.197923
-0.130256 -0.261879 0.20263401
-0.19900601 -0.227504 0.20707799
-0.16463099 -0.227504 0.21833199
-0.130256 -0.227504 0.219854
-0.130256 -0.193129 0.22677
-0.130256 -0.090003997 0.212947
-0.130256 -0.055629 0.20071
-0.095880501 -0.090003997 0.213157
-0.0615055 -0.090003997 0.213321
-0.095880501 -0.055629 0.202646
-0.027130499 -0.090003997 0.21633101
0.0072444701 -0.090003997 0.223305
0.14474399 -0.261879 0.217871
0.17911901 -0.227504 0.21592399
0.213494 -0.227504 0.198488
0.213494 -0.193129 0.218637
0.247869 -0.193129 0.20430601
0.041619498 -0.090003997 0.228865
0.041619498 -0.055629 0.218768
0.075994499 -0.055629 0.222885
0.110369 -0.055629 0.22780199
0.247869 -0.15875401 0.216618
0.28224501 -0.15875401 0.202705
0.247869 -0.124379 0.226549
0.28224501 -0.124379 0.21466701
0.213494 -0.055629 0.22720399
0.28224501 -0.090003997 0.21759699
0.247869 -0.055629 0.220755
0.28224501 -0.055629 0.21096601
0.31661901 -0.124379 0.197506
0.31661901 -0.090003997 0.19972099
0.31661901 -0.055629 0.19888601
-0.130256 0.322496 0.195926
-0.027130499 0.28812101 0.201928
0.0072444701 0.28812101 0.203936
-0.095880501 0.322496 0.20060501
-0.0615055 0.322496 0.20400301
-0.0615055 0.35687101 0.195582
-0.027130499 0.322496 0.20503201
0.0072444701 0.322496 0.204625
-0.027130499 0.35687101 0.19820499
0.0072444701 0.35687101 0.197666
0.075994499 -0.021253901 0.207138
0.110369 -0.021253901 0.211284
0.14474399 -0.021253901 0.211666
0.17911901 -0.021253901 0.209957
0.213494 -0.021253901 0.20850401
0.17911901 0.0131211 0.19565099
0.213494 0.0131211 0.19780201
0.247869 -0.021253901 0.20721801
0.28224501 -0.021253901 0.204546
0.247869 0.0131211 0.200303
0.28224501 0.0131211 0.20159701
0.247869 0.047495998 0.198792
0.28224501 0.047495998 0.200267
0.247869 0.081871003 0.197552
0.075994499 0.21937101 0.19714101
0.110369 0.21937101 0.199614
0.14474399 0.21937101 0.197487
0.213494 0.150621 0.19658899
0.247869 0.116246 0.198945
0.247869 0.150621 0.20243201
0.213494 0.18499599 0.200397
0.17911901 0.21937101 0.198844
0.213494 0.21937101 0.20544
0.247869 0.18499599 0.206558
0.247869 0.21937101 0.210113
0.31661901 -0.021253901 0.199406
0.31661901 0.0131211 0.200113
0.31661901 0.047495998 0.19931
0.35099399 0.047495998 0.196659
0.041619498 0.253746 0.200109
0.075994499 0.253746 0.20417
0.041619498 0.28812101 0.20592199
0.075994499 0.28812101 0.20788801
0.110369 0.253746 0.204138
0.14474399 0.253746 0.20214701
0.110369 0.28812101 0.20599499
0.14474399 0.28812101 0.204631
0.041619498 0.322496 0.204781
0.075994499 0.322496 0.204238
0.041619498 0.35687101 0.19638699
0.075994499 0.35687101 0.195629
0.110369 0.322496 0.203168
0.14474399 0.322496 0.204016
0.110369 0.35687101 0.19628599
0.14474399 0.35687101 0.19555201
0.17911901 0.253746 0.204634
0.213494 0.253746 0.209051
0.17911901 0.28812101 0.20757499
0.213494 0.28812101 0.20977899
0.247869 0.253746 0.211181
0.247869 0.28812101 0.20985501
0.17911901 0.322496 0.20519701
0.213494 0.322496 0.204937
0.247869 0.322496 0.20294
0.28224501 0.322496 0.19645099
-0.0196521 -0.41922599 0.210897
-0.0132548 -0.37728101 0.21457
-0.20241299 -0.236156 0.19838201
-0.210223 -0.206879 0.20242999
-0.184526 -0.204587 0.21498699
-0.107339 -0.24309801 0.210242
-0.08399 -0.220388 0.22316401
-0.15189099 -0.176819 0.22647101
-0.153172 -0.101765 0.220387
-0.15088101 -0.072816402 0.20547099
-0.044318002 -0.069379002 0.210226
-0.0092299599 -0.0670873 0.21469501
0.0093149496 -0.34303799 0.197642
0.055505 -0.27644199 0.21442699
0.095706902 -0.285687 0.20775799
0.048731498 -0.25233901 0.22758999
-0.174632 -0.051966999 0.196421
-0.075255498 -0.041559398 0.20002601
-0.047182601 0.27589399 0.19739801
-0.115007 0.29980701 0.19699401
-0.078693002 0.301871 0.20047601
0.0195213 -0.037290599 0.207876
0.26849401 0.099058598 0.201046
0.26849401 0.133434 0.204152
0.26849401 0.16780899 0.207476
0.26849401 0.20218401 0.21027499
0.29943201 0.068121098 0.199705
0.33380699 0.068121098 0.198862
0.36061999 0.068121098 0.196982
0.38714999 0.107463 0.196091
0.392369 0.136298 0.19769
0.26849401 0.236559 0.211363
0.26849401 0.27093399 0.210217
0.29716399 0.30267099 0.200946
0.32801899 0.29275799 0.198413
-0.0099430103 -0.20321099 0.24704599
-0.027130499 -0.20355099 0.24704599
0.0072444701 -0.199751 0.24704599
0.024431899 -0.19736101 0.24704599
0.041619498 -0.196271 0.24704599
0.12755699 -0.182023 0.24704599
0.110369 -0.190865 0.24704599
0.14474399 -0.17681099 0.24704599
0.14819799 -0.17594101 0.24704599
0.16193201 -0.170899 0.24704599
0.17911901 -0.161386 0.24704599
-0.0615055 -0.41656601 0.22987001
-0.0615055 -0.39937899 0.233086
-0.044318002 -0.41656601 0.235309
-0.044318002 -0.39937899 0.237223
-0.0615055 -0.382191 0.234255
-0.0615055 -0.365004 0.231471
-0.044318002 -0.382191 0.238516
-0.044318002 -0.365004 0.23743799
-0.044318002 -0.34781599 0.235759
-0.044318002 -0.33062899 0.233356
-0.044318002 -0.31344101 0.233243
-0.0615055 -0.227504 0.232961
-0.044318002 -0.227504 0.236526
-0.027130499 -0.227504 0.233909
-0.027130499 -0.210316 0.243379
-0.0099430103 -0.210316 0.24125101
0.0072444701 -0.210316 0.23737
-0.16463099 -0.14156599 0.231783
-0.16463099 -0.124379 0.231842
0.041619498 -0.227504 0.233252
0.024431899 -0.210316 0.235898
0.041619498 -0.210316 0.2385
0.110369 -0.193129 0.24631099
0.12755699 -0.193129 0.243349
0.14474399 -0.193129 0.240601
0.16193201 -0.193129 0.237167
0.16193201 -0.17594101 0.244453
0.17911901 -0.193129 0.23215701
0.17911901 -0.17594101 0.240165
-0.027130499 -0.193129 0.25021601
-0.0099430103 -0.193129 0.25195301
0.0072444701 -0.193129 0.251524
0.024431899 -0.193129 0.250276
0.041619498 -0.193129 0.249258
0.110369 -0.17594101 0.25263199
0.12755699 -0.17594101 0.24991
0.14474399 -0.17594101 0.247522
