# .PCD v0.7 - Point Cloud Data file format
VERSION 0.7
FIELDS x y z
SIZE 4 4 4
TYPE F F F
COUNT 1 1 1
WIDTH 1475
HEIGHT 1
VIEWPOINT 0 0 0 1 0 0 0
POINTS 1475
DATA ascii
-0.302131 -0.184535 -0.20654801
-0.302131 -0.17594101 -0.208242
-0.31072399 -0.167348 -0.20109899
-0.31072399 -0.15875401 -0.203812
-0.31072399 -0.15016 -0.20439699
-0.31072399 -0.14156599 -0.204294
-0.31072399 -0.132973 -0.205846
-0.319318 -0.107191 -0.200339
-0.31072399 -0.090003997 -0.206846
-0.31072399 -0.081410199 -0.205073
-0.31072399 -0.072816402 -0.203912
-0.31072399 -0.064222701 -0.20140199
-0.31072399 -0.055629 -0.20026501
-0.250568 -0.31344101 -0.201079
-0.241974 -0.32203501 -0.20310999
-0.233381 -0.33062899 -0.205109
0.23927601 -0.279066 -0.200563
0.247869 -0.261879 -0.203879
0.25646299 -0.244691 -0.200423
0.25646299 -0.23609801 -0.20556299
0.25646299 -0.227504 -0.208354
0.25646299 -0.115785 -0.207413
0.25646299 -0.107191 -0.20574
0.25646299 -0.098597698 -0.201589
0.247869 -0.081410199 -0.207332
0.247869 -0.072816402 -0.203669
0.23927601 -0.055629 -0.20394
-0.302131 -0.047035199 -0.20583799
-0.302131 -0.038441502 -0.201793
-0.29353699 -0.0298477 -0.20608
-0.29353699 -0.021253901 -0.20207299
-0.28494301 -0.0126602 -0.20682999
-0.28494301 -0.0040664701 -0.20177799
-0.27634901 0.0045272699 -0.203639
-0.26775599 0.0131211 -0.205671
-0.26775599 0.021714799 -0.20072199
-0.25916201 0.021714799 -0.207817
-0.25916201 0.0303085 -0.20286199
-0.250568 0.038902301 -0.203394
-0.241974 0.047495998 -0.20460799
-0.233381 0.0560898 -0.203563
-0.224787 0.0560898 -0.207822
-0.224787 0.064683601 -0.201675
-0.21619301 0.064683601 -0.205836
-0.21619301 0.073277302 -0.201208
-0.207599 0.073277302 -0.20567299
-0.19900601 0.081871003 -0.203844
-0.190412 0.081871003 -0.20776799
-0.190412 0.090464801 -0.200633
-0.18181799 0.090464801 -0.20452
-0.173224 0.090464801 -0.208277
-0.173224 0.099058598 -0.20156901
-0.16463099 0.099058598 -0.20504799
-0.156037 0.099058598 -0.20819999
-0.156037 0.107652 -0.20080701
-0.147443 0.107652 -0.202976
-0.13884901 0.107652 -0.205934
-0.130256 0.116246 -0.20005
-0.121662 0.116246 -0.20304
-0.113068 0.116246 -0.20508701
-0.104474 0.116246 -0.20738199
-0.104474 0.12484 -0.200058
-0.095880501 0.12484 -0.20201001
-0.0872868 0.12484 -0.203629
-0.078693002 0.12484 -0.20411199
-0.070099302 0.12484 -0.203842
-0.0615055 0.12484 -0.204338
-0.052911799 0.12484 -0.20607001
-0.044318002 0.12484 -0.206065
-0.035724301 0.12484 -0.205033
-0.027130499 0.12484 -0.204465
-0.018536801 0.12484 -0.203583
-0.0099430103 0.12484 -0.20244101
-0.00134927 0.12484 -0.202006
0.0072444701 0.12484 -0.201077
0.110369 0.073277302 -0.207453
0.101776 0.081871003 -0.205548
0.110369 0.081871003 -0.20003501
0.12755699 0.064683601 -0.20481101
0.136151 0.0560898 -0.20749199
0.14474399 0.0560898 -0.20307
0.136151 0.064683601 -0.200112
0.118963 0.073277302 -0.203012
0.213494 -0.0126602 -0.20777901
0.213494 -0.0040664701 -0.20151401
0.196307 0.0131211 -0.203365
0.20490099 0.0045272699 -0.202925
0.230682 -0.038441502 -0.206054
0.230682 -0.0298477 -0.200304
0.22208799 -0.021253901 -0.204872
0.22208799 -0.0126602 -0.200571
0.170526 0.0303085 -0.207984
0.17911901 0.0303085 -0.202255
0.16193201 0.038902301 -0.206211
0.153338 0.047495998 -0.20474
0.170526 0.038902301 -0.20139401
0.187713 0.021714799 -0.20253301
0.0158382 0.116246 -0.207863
0.024431899 0.116246 -0.20539699
0.041619498 0.107652 -0.207782
0.033025701 0.116246 -0.20211799
0.067400701 0.099058598 -0.207895
0.075994499 0.099058598 -0.204561
0.050213199 0.107652 -0.206691
0.058807001 0.107652 -0.204198
0.067400701 0.107652 -0.200397
0.0845882 0.090464801 -0.207856
0.093181998 0.090464801 -0.20218299
-0.16463099 -0.42608699 -0.199829
-0.173537 -0.41656601 -0.199829
-0.18181799 -0.40592599 -0.199829
-0.18635 -0.39937899 -0.199829
-0.19900601 -0.37810999 -0.199829
-0.207238 -0.365004 -0.199829
-0.21619301 -0.35220301 -0.199829
-0.219872 -0.34781599 -0.199829
-0.196595 -0.382191 -0.199829
0.15331399 -0.39937899 -0.199829
0.14474399 -0.408723 -0.199829
0.16193201 -0.38989401 -0.199829
0.168688 -0.382191 -0.199829
0.17911901 -0.369652 -0.199829
0.18297599 -0.365004 -0.199829
0.196307 -0.34904599 -0.199829
0.197356 -0.34781599 -0.199829
0.212413 -0.33062899 -0.199829
0.213494 -0.32925099 -0.199829
-0.16463099 -0.41656601 -0.209234
-0.18181799 -0.39937899 -0.206174
-0.21619301 -0.34781599 -0.20968699
0.16193201 -0.382191 -0.21656001
0.17911901 -0.365004 -0.21229701
0.196307 -0.34781599 -0.20406801
-0.232054 -0.32665801 -0.212833
0.211886 -0.32683101 -0.210142
0.2193 -0.31743801 -0.208455
-0.241974 -0.33181301 -0.19123501
-0.24345 -0.33062899 -0.19123501
-0.233381 -0.33897501 -0.19123501
-0.26775599 -0.29651701 -0.19123501
-0.26791099 -0.29625401 -0.19123501
-0.27362701 -0.28766 -0.19123501
-0.27634901 -0.28365999 -0.19123501
-0.28001001 -0.279066 -0.19123501
-0.28494301 -0.27350199 -0.19123501
-0.28652301 -0.270473 -0.19123501
-0.29090199 -0.261879 -0.19123501
-0.302131 -0.246847 -0.19123501
-0.30285701 -0.244691 -0.19123501
-0.30506399 -0.23609801 -0.19123501
-0.30620801 -0.227504 -0.19123501
-0.29353699 -0.25839201 -0.19123501
-0.297961 -0.25328499 -0.19123501
-0.30793199 -0.21890999 -0.19123501
-0.309349 -0.210316 -0.19123501
-0.31029001 -0.20172299 -0.19123501
-0.31072399 -0.20012601 -0.19123501
-0.313474 -0.193129 -0.19123501
-0.315615 -0.184535 -0.19123501
-0.31672999 -0.17594101 -0.19123501
-0.317233 -0.167348 -0.19123501
-0.31830701 -0.15875401 -0.19123501
-0.319318 -0.150517 -0.19123501
-0.31933299 -0.15016 -0.19123501
-0.31966701 -0.14156599 -0.19123501
-0.320263 -0.132973 -0.19123501
-0.32106501 -0.124379 -0.19123501
-0.323302 -0.115785 -0.19123501
-0.32541201 -0.107191 -0.19123501
-0.32420501 -0.098597698 -0.19123501
-0.32262999 -0.090003997 -0.19123501
-0.32365 -0.081410199 -0.19123501
-0.32383499 -0.072816402 -0.19123501
-0.32095599 -0.064222701 -0.19123501
-0.319318 -0.057544202 -0.19123501
-0.319076 -0.055629 -0.19123501
-0.250568 -0.32272601 -0.19123501
-0.25117099 -0.32203501 -0.19123501
-0.25759801 -0.31344101 -0.19123501
-0.25916201 -0.31082201 -0.19123501
-0.26301301 -0.30484799 -0.19123501
0.228292 -0.31344101 -0.19123501
0.230682 -0.30899599 -0.19123501
0.233171 -0.30484799 -0.19123501
0.23681 -0.29625401 -0.19123501
0.23927601 -0.28998399 -0.19123501
0.24026901 -0.28766 -0.19123501
0.24466801 -0.279066 -0.19123501
0.247869 -0.27417701 -0.19123501
0.249543 -0.270473 -0.19123501
0.251609 -0.261879 -0.19123501
0.255086 -0.25328499 -0.19123501
0.25646299 -0.25043699 -0.19123501
0.258118 -0.244691 -0.19123501
0.260144 -0.23609801 -0.19123501
0.259859 -0.227504 -0.19123501
0.26043701 -0.21890999 -0.19123501
0.262676 -0.210316 -0.19123501
0.26359999 -0.20172299 -0.19123501
0.265057 -0.194003 -0.19123501
0.26533699 -0.193129 -0.19123501
0.267636 -0.184535 -0.19123501
0.26806 -0.17594101 -0.19123501
0.26642299 -0.167348 -0.19123501
0.26666 -0.15875401 -0.19123501
0.26695299 -0.15016 -0.19123501
0.265508 -0.14156599 -0.19123501
0.265057 -0.13432001 -0.19123501
0.26479301 -0.132973 -0.19123501
0.26368099 -0.124379 -0.19123501
0.26458001 -0.115785 -0.19123501
0.26346499 -0.107191 -0.19123501
0.26066101 -0.098597698 -0.19123501
0.258838 -0.090003997 -0.19123501
0.257054 -0.081410199 -0.19123501
0.25646299 -0.079745904 -0.19123501
0.25537801 -0.072816402 -0.19123501
0.253427 -0.064222701 -0.19123501
0.24862 -0.055629 -0.19123501
-0.31614301 -0.047035199 -0.19123501
-0.31163701 -0.038441502 -0.19123501
-0.31072399 -0.036123302 -0.19123501
-0.308952 -0.0298477 -0.19123501
-0.30637801 -0.021253901 -0.19123501
-0.302131 -0.0142737 -0.19123501
-0.30078799 -0.0126602 -0.19123501
-0.29570001 -0.0040664701 -0.19123501
-0.29353699 0.00131339 -0.19123501
-0.29176301 0.0045272699 -0.19123501
-0.28666699 0.0131211 -0.19123501
-0.28494301 0.0153817 -0.19123501
-0.27832001 0.021714799 -0.19123501
-0.27634901 0.024479801 -0.19123501
-0.27300501 0.0303085 -0.19123501
-0.26775599 0.0367731 -0.19123501
-0.26543999 0.038902301 -0.19123501
-0.25916201 0.0474222 -0.19123501
-0.25911999 0.047495998 -0.19123501
-0.252691 0.0560898 -0.19123501
-0.250568 0.058646701 -0.19123501
-0.244867 0.064683601 -0.19123501
-0.241974 0.067557096 -0.19123501
-0.234771 0.073277302 -0.19123501
-0.233381 0.074188799 -0.19123501
-0.224787 0.079517402 -0.19123501
-0.22142699 0.081871003 -0.19123501
-0.21619301 0.087171301 -0.19123501
-0.212962 0.090464801 -0.19123501
-0.207599 0.094432198 -0.19123501
-0.19900601 0.098292097 -0.19123501
-0.19699 0.099058598 -0.19123501
-0.190412 0.102422 -0.19123501
-0.182935 0.107652 -0.19123501
-0.18181799 0.108454 -0.19123501
-0.173224 0.113972 -0.19123501
-0.16853601 0.116246 -0.19123501
-0.16463099 0.117712 -0.19123501
-0.156037 0.120056 -0.19123501
-0.147443 0.121421 -0.19123501
-0.13884901 0.123262 -0.19123501
-0.135131 0.12484 -0.19123501
-0.130256 0.12767801 -0.19123501
-0.121662 0.132085 -0.19123501
-0.117975 0.133434 -0.19123501
-0.113068 0.134709 -0.19123501
-0.104474 0.13669001 -0.19123501
-0.095880501 0.138512 -0.19123501
-0.0872868 0.140155 -0.19123501
-0.078693002 0.14095999 -0.19123501
-0.070099302 0.13988499 -0.19123501
-0.0615055 0.141063 -0.19123501
-0.058482401 0.14202701 -0.19123501
-0.044318002 0.141642 -0.19123501
-0.0503469 0.14202701 -0.19123501
-0.052911799 0.142271 -0.19123501
-0.035724301 0.14073101 -0.19123501
-0.027130499 0.140082 -0.19123501
0.0072444701 0.133185 -0.19123501
0.0062468601 0.133434 -0.19123501
-0.018536801 0.13882001 -0.19123501
-0.0099430103 0.1364 -0.19123501
-0.00134927 0.134974 -0.19123501
0.14474399 0.071308501 -0.19123501
0.141224 0.073277302 -0.19123501
0.136151 0.076892696 -0.19123501
0.13003901 0.081871003 -0.19123501
0.213494 0.00980902 -0.19123501
0.210521 0.0131211 -0.19123501
0.247869 -0.0539793 -0.19123501
0.24569 -0.047035199 -0.19123501
0.242478 -0.038441502 -0.19123501
0.23927601 -0.031724501 -0.19123501
0.238483 -0.0298477 -0.19123501
0.236169 -0.021253901 -0.19123501
0.230682 -0.010243 -0.19123501
0.22588199 -0.0040664701 -0.19123501
0.232549 -0.0126602 -0.19123501
0.22208799 0.00079477002 -0.19123501
0.218206 0.0045272699 -0.19123501
0.17911901 0.0447868 -0.19123501
0.175293 0.047495998 -0.19123501
0.196307 0.028354799 -0.19123501
0.194682 0.0303085 -0.19123501
0.20490099 0.018857 -0.19123501
0.202277 0.021714799 -0.19123501
0.187713 0.0371916 -0.19123501
0.18573 0.038902301 -0.19123501
0.16193201 0.0584599 -0.19123501
0.154673 0.064683601 -0.19123501
0.170526 0.050462399 -0.19123501
0.164066 0.0560898 -0.19123501
0.153338 0.065637 -0.19123501
0.075994499 0.114514 -0.19123501
0.072371997 0.116246 -0.19123501
0.0158382 0.13140801 -0.19123501
0.024431899 0.129858 -0.19123501
0.033025701 0.12789799 -0.19123501
0.041619498 0.126094 -0.19123501
0.050213199 0.123679 -0.19123501
0.046006002 0.12484 -0.19123501
0.058807001 0.121421 -0.19123501
0.067400701 0.118466 -0.19123501
0.110369 0.093665801 -0.19123501
0.102417 0.099058598 -0.19123501
0.093181998 0.105139 -0.19123501
0.088022701 0.107652 -0.19123501
0.0845882 0.109496 -0.19123501
0.101776 0.099501997 -0.19123501
0.118963 0.088520102 -0.19123501
0.115279 0.090464801 -0.19123501
0.12755699 0.083469696 -0.19123501
-0.241974 -0.33062899 -0.192661
-0.26775599 -0.29625401 -0.19158199
-0.27634901 -0.279066 -0.195787
-0.28494301 -0.270473 -0.193984
-0.302131 -0.244691 -0.192121
-0.302131 -0.23609801 -0.194115
-0.302131 -0.227504 -0.19729599
-0.29353699 -0.25328499 -0.198764
-0.31072399 -0.193129 -0.19504599
-0.31072399 -0.184535 -0.197824
-0.31072399 -0.17594101 -0.19917899
-0.319318 -0.15016 -0.19126201
-0.319318 -0.14156599 -0.191706
-0.319318 -0.132973 -0.192893
-0.319318 -0.124379 -0.194194
-0.319318 -0.115785 -0.19680899
-0.319318 -0.098597698 -0.199736
-0.319318 -0.090003997 -0.196834
-0.319318 -0.081410199 -0.196887
-0.319318 -0.072816402 -0.195197
-0.319318 -0.064222701 -0.19212399
-0.250568 -0.32203501 -0.191945
-0.25916201 -0.30484799 -0.19821601
0.230682 -0.30484799 -0.198384
0.23927601 -0.28766 -0.194736
0.247869 -0.270473 -0.19454101
0.265057 -0.193129 -0.191771
0.265057 -0.184535 -0.195521
0.265057 -0.17594101 -0.19789299
0.265057 -0.167348 -0.194837
0.265057 -0.15875401 -0.194488
0.265057 -0.15016 -0.198085
0.265057 -0.14156599 -0.195896
0.25646299 -0.090003997 -0.196054
0.247869 -0.064222701 -0.19900601
0.247869 -0.055629 -0.192467
0.25646299 -0.081410199 -0.19220901
-0.31072399 -0.047035199 -0.197822
-0.31072399 -0.038441502 -0.19273899
-0.302131 -0.0298477 -0.198816
-0.302131 -0.021253901 -0.19579899
-0.29353699 -0.0126602 -0.19704901
-0.29353699 -0.0040664701 -0.19362
-0.28494301 0.0045272699 -0.197688
-0.28494301 0.0131211 -0.192351
-0.27634901 0.0131211 -0.197861
-0.27634901 0.021714799 -0.192609
-0.26775599 0.0303085 -0.19650701
-0.25916201 0.038902301 -0.197208
-0.250568 0.047495998 -0.198146
-0.250568 0.0560898 -0.192699
-0.241974 0.0560898 -0.199177
-0.241974 0.064683601 -0.19317199
-0.233381 0.064683601 -0.19736899
-0.233381 0.073277302 -0.19180401
-0.224787 0.073277302 -0.19640601
-0.21619301 0.081871003 -0.194767
-0.207599 0.081871003 -0.199756
-0.207599 0.090464801 -0.19391499
-0.19900601 0.090464801 -0.197695
-0.190412 0.099058598 -0.193618
-0.18181799 0.099058598 -0.197684
-0.18181799 0.107652 -0.191717
-0.173224 0.107652 -0.19541299
-0.16463099 0.107652 -0.198562
-0.16463099 0.116246 -0.19219901
-0.156037 0.116246 -0.193913
-0.147443 0.116246 -0.19501901
-0.13884901 0.116246 -0.196752
-0.130256 0.12484 -0.19295
-0.121662 0.12484 -0.19623099
-0.113068 0.12484 -0.198274
-0.113068 0.133434 -0.192102
-0.104474 0.133434 -0.193731
-0.095880501 0.133434 -0.195347
-0.0872868 0.133434 -0.196421
-0.078693002 0.133434 -0.196897
-0.070099302 0.133434 -0.196858
-0.0615055 0.133434 -0.197938
-0.052911799 0.133434 -0.199379
-0.044318002 0.133434 -0.199653
-0.035724301 0.133434 -0.19838101
-0.027130499 0.133434 -0.19736101
-0.052911799 0.14202701 -0.191531
-0.018536801 0.133434 -0.196116
-0.0099430103 0.133434 -0.194359
-0.00134927 0.133434 -0.192973
0.14474399 0.064683601 -0.196426
0.12755699 0.073277302 -0.198516
0.118963 0.081871003 -0.195678
0.12755699 0.081871003 -0.192286
0.136151 0.073277302 -0.194225
0.213494 0.0045272699 -0.19566201
0.20490099 0.0131211 -0.19599199
0.23927601 -0.047035199 -0.199788
0.23927601 -0.038441502 -0.195397
0.230682 -0.021253901 -0.19654
0.230682 -0.0126602 -0.192863
0.22208799 -0.0040664701 -0.194005
0.16193201 0.047495998 -0.199083
0.17911901 0.038902301 -0.195227
0.170526 0.047495998 -0.19362199
0.196307 0.021714799 -0.195702
0.187713 0.0303085 -0.195939
0.153338 0.0560898 -0.198668
0.16193201 0.0560898 -0.19281501
0.153338 0.064683601 -0.19194999
0.041619498 0.116246 -0.19960301
0.050213199 0.116246 -0.19785599
0.058807001 0.116246 -0.195466
0.075994499 0.107652 -0.196499
0.067400701 0.116246 -0.192811
0.0158382 0.12484 -0.198328
0.024431899 0.12484 -0.195078
0.033025701 0.12484 -0.193306
0.041619498 0.12484 -0.19246
0.0845882 0.099058598 -0.199515
0.093181998 0.099058598 -0.19486301
0.101776 0.090464801 -0.19736999
0.110369 0.090464801 -0.19317999
0.101776 0.099058598 -0.19150101
0.0845882 0.107652 -0.192607
-0.233381 -0.34483099 -0.182642
-0.23949499 -0.339223 -0.182642
-0.241974 -0.33737499 -0.182642
-0.24961901 -0.33062899 -0.182642
-0.26775599 -0.30568001 -0.182642
-0.26814801 -0.30484799 -0.182642
-0.2735 -0.29625401 -0.182642
-0.28494301 -0.27976599 -0.182642
-0.28549901 -0.279066 -0.182642
-0.27634901 -0.29312199 -0.182642
-0.280058 -0.28766 -0.182642
-0.29026499 -0.270473 -0.182642
-0.29353699 -0.264561 -0.182642
-0.29550701 -0.261879 -0.182642
-0.302131 -0.25395399 -0.182642
-0.302771 -0.25328499 -0.182642
-0.30827001 -0.244691 -0.182642
-0.31072399 -0.240417 -0.182642
-0.313319 -0.23609801 -0.182642
-0.31523901 -0.227504 -0.182642
-0.316434 -0.21890999 -0.182642
-0.31614301 -0.210316 -0.182642
-0.319318 -0.19911601 -0.182642
-0.32134399 -0.193129 -0.182642
-0.31754699 -0.20172299 -0.182642
-0.32265601 -0.184535 -0.182642
-0.32327801 -0.17594101 -0.182642
-0.32365 -0.167348 -0.182642
-0.32406899 -0.15875401 -0.182642
-0.32621101 -0.15016 -0.182642
-0.32716599 -0.14156599 -0.182642
-0.327355 -0.132973 -0.182642
-0.327912 -0.130237 -0.182642
-0.329487 -0.124379 -0.182642
-0.33114699 -0.115785 -0.182642
-0.332073 -0.107191 -0.182642
-0.33068299 -0.098597698 -0.182642
-0.328383 -0.090003997 -0.182642
-0.32928899 -0.081410199 -0.182642
-0.32954201 -0.072816402 -0.182642
-0.32952499 -0.064222701 -0.182642
-0.327912 -0.056545299 -0.182642
-0.32754999 -0.055629 -0.182642
-0.250568 -0.32932401 -0.182642
-0.25600901 -0.32203501 -0.182642
-0.25916201 -0.31786099 -0.182642
-0.26241201 -0.31344101 -0.182642
0.23116601 -0.31344101 -0.182642
0.236302 -0.30484799 -0.182642
0.23927601 -0.29701501 -0.182642
0.23948599 -0.29625401 -0.182642
0.24361899 -0.28766 -0.182642
0.247869 -0.28087199 -0.182642
0.249009 -0.279066 -0.182642
0.253061 -0.270473 -0.182642
0.25629601 -0.261879 -0.182642
0.25646299 -0.260061 -0.182642
0.25794199 -0.25328499 -0.182642
0.25976899 -0.244691 -0.182642
0.26216501 -0.23609801 -0.182642
0.26365501 -0.227504 -0.182642
0.264687 -0.21890999 -0.182642
0.265057 -0.216637 -0.182642
0.26608899 -0.210316 -0.182642
0.26740599 -0.20172299 -0.182642
0.26933199 -0.193129 -0.182642
0.27203301 -0.184535 -0.182642
0.27166599 -0.17594101 -0.182642
0.26978001 -0.167348 -0.182642
0.27144301 -0.15875401 -0.182642
0.27082399 -0.15016 -0.182642
0.268464 -0.14156599 -0.182642
0.26871699 -0.132973 -0.182642
0.26924399 -0.124379 -0.182642
0.27008599 -0.115785 -0.182642
0.268103 -0.107191 -0.182642
0.265057 -0.090877801 -0.182642
0.264943 -0.090003997 -0.182642
0.26583001 -0.098597698 -0.182642
0.262768 -0.081410199 -0.182642
0.26093501 -0.072816402 -0.182642
0.25869501 -0.064222701 -0.182642
0.25669399 -0.055629 -0.182642
-0.32335901 -0.047035199 -0.182642
-0.319318 -0.038612101 -0.182642
-0.31922299 -0.038441502 -0.182642
-0.31587201 -0.0298477 -0.182642
-0.31501701 -0.021253901 -0.182642
-0.31072399 -0.015251 -0.182642
-0.307717 -0.0126602 -0.182642
-0.30337301 -0.0040664701 -0.182642
-0.302131 -0.00101018 -0.182642
-0.299335 0.0045272699 -0.182642
-0.29445699 0.0131211 -0.182642
-0.29353699 0.0153243 -0.182642
-0.29077801 0.021714799 -0.182642
-0.28494301 0.0282635 -0.182642
-0.28236201 0.0303085 -0.182642
-0.27634901 0.038775899 -0.182642
-0.27628899 0.038902301 -0.182642
-0.27112001 0.047495998 -0.182642
-0.26775599 0.053246502 -0.182642
-0.26522601 0.0560898 -0.182642
-0.25916201 0.063312098 -0.182642
-0.258324 0.064683601 -0.182642
-0.250844 0.073277302 -0.182642
-0.250568 0.073465303 -0.182642
-0.241974 0.079816297 -0.182642
-0.23901799 0.081871003 -0.182642
-0.233381 0.086020097 -0.182642
-0.229715 0.090464801 -0.182642
-0.224787 0.095070399 -0.182642
-0.217199 0.099058598 -0.182642
-0.21619301 0.099606097 -0.182642
-0.207599 0.104517 -0.182642
-0.20242 0.107652 -0.182642
-0.19900601 0.110089 -0.182642
-0.190934 0.116246 -0.182642
-0.190412 0.11664 -0.182642
-0.18181799 0.123082 -0.182642
-0.179252 0.12484 -0.182642
-0.173224 0.12803499 -0.182642
-0.16463099 0.131263 -0.182642
-0.158224 0.133434 -0.182642
-0.156037 0.134137 -0.182642
-0.147443 0.136244 -0.182642
-0.13884901 0.13863499 -0.182642
-0.130256 0.142005 -0.182642
-0.13018601 0.14202701 -0.182642
-0.121662 0.144214 -0.182642
-0.113068 0.14625999 -0.182642
-0.104474 0.148167 -0.182642
-0.095880501 0.149258 -0.182642
-0.087635703 0.150621 -0.182642
-0.044318002 0.150429 -0.182642
-0.044923998 0.150621 -0.182642
-0.035724301 0.14865801 -0.182642
-0.027130499 0.14884201 -0.182642
-0.018536801 0.148927 -0.182642
-0.0099430103 0.146623 -0.182642
-0.00134927 0.143701 -0.182642
0.0072444701 0.142501 -0.182642
-0.0872868 0.15070599 -0.182642
-0.078693002 0.151867 -0.182642
-0.070099302 0.150831 -0.182642
-0.0615055 0.15073 -0.182642
-0.052911799 0.15186401 -0.182642
0.247869 -0.032200702 -0.182642
0.24695 -0.0298477 -0.182642
0.24527299 -0.021253901 -0.182642
0.25646299 -0.054375499 -0.182642
0.25222 -0.047035199 -0.182642
0.249951 -0.038441502 -0.182642
0.24191201 -0.0126602 -0.182642
0.23927601 -0.0093787899 -0.182642
0.234898 -0.0040664701 -0.182642
0.230682 0.00325966 -0.182642
0.230083 0.0045272699 -0.182642
0.22208799 0.0129654 -0.182642
0.221893 0.0131211 -0.182642
0.213494 0.021903699 -0.182642
0.20601 0.0303085 -0.182642
0.196307 0.044331402 -0.182642
0.192286 0.047495998 -0.182642
0.20490099 0.032050598 -0.182642
0.200923 0.038902301 -0.182642
0.17911901 0.058143798 -0.182642
0.174078 0.064683601 -0.182642
0.16193201 0.072629899 -0.182642
0.161015 0.073277302 -0.182642
0.153338 0.077739798 -0.182642
0.146268 0.081871003 -0.182642
0.170526 0.067378499 -0.182642
0.187713 0.050776102 -0.182642
0.180966 0.0560898 -0.182642
0.21367501 0.021714799 -0.182642
0.0158382 0.14130799 -0.182642
0.0105121 0.14202701 -0.182642
0.024431899 0.14029901 -0.182642
0.033025701 0.13907699 -0.182642
0.041619498 0.136857 -0.182642
0.067400701 0.130014 -0.182642
0.059417699 0.133434 -0.182642
0.075994499 0.12564 -0.182642
0.050213199 0.13551199 -0.182642
0.058807001 0.13368399 -0.182642
0.093181998 0.115335 -0.182642
0.091668703 0.116246 -0.182642
0.110369 0.106754 -0.182642
0.108753 0.107652 -0.182642
0.101776 0.111014 -0.182642
0.12755699 0.0958056 -0.182642
0.123077 0.099058598 -0.182642
0.136151 0.0901163 -0.182642
0.135535 0.090464801 -0.182642
0.14474399 0.083193198 -0.182642
0.118963 0.101578 -0.182642
0.0845882 0.12074 -0.182642
0.0776214 0.12484 -0.182642
-0.19900601 -0.398121 -0.182642
-0.20271499 -0.39078501 -0.182642
-0.207599 -0.382301 -0.182642
-0.20766599 -0.382191 -0.182642
-0.21619301 -0.367264 -0.182642
-0.217599 -0.365004 -0.182642
-0.223409 -0.35641 -0.182642
-0.224787 -0.35460299 -0.182642
-0.23051301 -0.34781599 -0.182642
0.181982 -0.37359801 -0.182642
0.17911901 -0.37759501 -0.182642
0.187713 -0.36571401 -0.182642
0.188253 -0.365004 -0.182642
0.19502001 -0.35641 -0.182642
0.196307 -0.35483199 -0.182642
0.202347 -0.34781599 -0.182642
-0.233381 -0.339223 -0.190805
-0.26775599 -0.30484799 -0.183171
-0.28494301 -0.279066 -0.184228
-0.27634901 -0.28766 -0.187823
-0.29353699 -0.261879 -0.18561199
-0.302131 -0.25328499 -0.183863
-0.31072399 -0.23609801 -0.186915
-0.31072399 -0.227504 -0.187261
-0.31072399 -0.21890999 -0.18831
-0.31072399 -0.210316 -0.189069
-0.319318 -0.193129 -0.18466599
-0.31072399 -0.20172299 -0.190311
-0.319318 -0.184535 -0.185789
-0.319318 -0.17594101 -0.18755899
-0.319318 -0.167348 -0.18758
-0.319318 -0.15875401 -0.188949
-0.327912 -0.124379 -0.18387
-0.327912 -0.115785 -0.18581
-0.327912 -0.107191 -0.18739501
-0.327912 -0.098597698 -0.186298
-0.327912 -0.090003997 -0.183304
-0.327912 -0.081410199 -0.184246
-0.327912 -0.072816402 -0.18468
-0.327912 -0.064222701 -0.18447199
-0.319318 -0.055629 -0.19102
-0.25916201 -0.31344101 -0.18817
0.230682 -0.31344101 -0.18400399
0.23927601 -0.29625401 -0.18301199
0.247869 -0.279066 -0.184844
0.25646299 -0.25328499 -0.186636
0.265057 -0.210316 -0.18475799
0.265057 -0.20172299 -0.186552
0.265057 -0.132973 -0.190556
0.265057 -0.124379 -0.189514
0.265057 -0.115785 -0.19075
0.265057 -0.107191 -0.18844999
0.265057 -0.098597698 -0.183854
0.25646299 -0.072816402 -0.189099
0.25646299 -0.064222701 -0.185734
0.25646299 -0.055629 -0.182853
-0.319318 -0.047035199 -0.18747599
-0.31072399 -0.0298477 -0.188014
-0.31072399 -0.021253901 -0.186252
-0.302131 -0.0126602 -0.18976399
-0.302131 -0.0040664701 -0.183906
-0.29353699 0.0045272699 -0.188922
-0.29353699 0.0131211 -0.183915
-0.28494301 0.021714799 -0.187741
-0.27634901 0.0303085 -0.187455
-0.26775599 0.038902301 -0.189116
-0.26775599 0.047495998 -0.184825
-0.25916201 0.047495998 -0.191201
-0.25916201 0.0560898 -0.186791
-0.250568 0.064683601 -0.18774199
-0.250568 0.073277302 -0.18274599
-0.241974 0.073277302 -0.18738499
-0.233381 0.081871003 -0.18579599
-0.224787 0.081871003 -0.18950801
-0.224787 0.090464801 -0.185093
-0.21619301 0.090464801 -0.189668
-0.21619301 0.099058598 -0.183165
-0.207599 0.099058598 -0.18721101
-0.19900601 0.099058598 -0.190602
-0.19900601 0.107652 -0.184145
-0.190412 0.107652 -0.18799099
-0.190412 0.116246 -0.182877
-0.18181799 0.116246 -0.186646
-0.173224 0.116246 -0.18988501
-0.173224 0.12484 -0.18455499
-0.16463099 0.12484 -0.186735
-0.156037 0.12484 -0.18831199
-0.147443 0.12484 -0.189265
-0.156037 0.133434 -0.18304799
-0.147443 0.133434 -0.18427201
-0.13884901 0.12484 -0.190401
-0.13884901 0.133434 -0.185589
-0.130256 0.133434 -0.187824
-0.121662 0.133434 -0.190359
-0.121662 0.14202701 -0.18421
-0.113068 0.14202701 -0.185839
-0.104474 0.14202701 -0.187218
-0.095880501 0.14202701 -0.188328
-0.0872868 0.14202701 -0.189794
-0.078693002 0.14202701 -0.190596
-0.0872868 0.150621 -0.182722
-0.078693002 0.150621 -0.18389601
-0.070099302 0.14202701 -0.18972901
-0.0615055 0.14202701 -0.190357
-0.070099302 0.150621 -0.182834
-0.0615055 0.150621 -0.18274
-0.044318002 0.14202701 -0.190568
-0.052911799 0.150621 -0.183569
-0.035724301 0.14202701 -0.189354
-0.027130499 0.14202701 -0.189209
0.0072444701 0.133434 -0.190989
-0.018536801 0.14202701 -0.18869799
-0.0099430103 0.14202701 -0.186184
-0.00134927 0.14202701 -0.183994
0.0072444701 0.14202701 -0.183006
0.14474399 0.073277302 -0.189255
0.136151 0.081871003 -0.187895
0.14474399 0.081871003 -0.183226
0.213494 0.0131211 -0.188243
0.247869 -0.047035199 -0.188039
0.247869 -0.038441502 -0.18495999
0.23927601 -0.0298477 -0.190183
0.23927601 -0.021253901 -0.18855301
0.230682 -0.0040664701 -0.187077
0.23927601 -0.0126602 -0.185324
0.22208799 0.0045272699 -0.188954
0.17911901 0.047495998 -0.18930601
0.196307 0.0303085 -0.19012
0.20490099 0.021714799 -0.189518
0.213494 0.021714799 -0.182768
0.20490099 0.0303085 -0.183705
0.187713 0.038902301 -0.19035
0.196307 0.038902301 -0.185709
0.187713 0.047495998 -0.185048
0.16193201 0.064683601 -0.18747
0.170526 0.0560898 -0.18801101
0.17911901 0.0560898 -0.183709
0.170526 0.064683601 -0.18406101
0.153338 0.073277302 -0.185505
0.075994499 0.116246 -0.190047
0.0158382 0.133434 -0.18945999
0.024431899 0.133434 -0.18842299
0.033025701 0.133434 -0.18701001
0.041619498 0.133434 -0.18498801
0.050213199 0.12484 -0.190266
0.058807001 0.12484 -0.188915
0.050213199 0.133434 -0.184089
0.058807001 0.133434 -0.18285701
0.067400701 0.12484 -0.18668699
0.075994499 0.12484 -0.183283
0.110369 0.099058598 -0.18774401
0.093181998 0.107652 -0.18898
0.0845882 0.116246 -0.186133
0.101776 0.107652 -0.18500499
0.118963 0.090464801 -0.18986
0.12755699 0.090464801 -0.186286
0.118963 0.099058598 -0.184126
-0.16463099 -0.44421801 -0.182642
-0.175442 -0.433754 -0.182642
-0.18181799 -0.42633399 -0.182642
-0.18884701 -0.41656601 -0.182642
-0.19836 -0.39937899 -0.182642
0.14823 -0.41656601 -0.182642
0.14474399 -0.421031 -0.182642
0.16193201 -0.399571 -0.182642
0.162093 -0.39937899 -0.182642
0.175837 -0.382191 -0.182642
0.213494 -0.33572301 -0.182642
0.218022 -0.33062899 -0.182642
0.230682 -0.31433499 -0.182642
-0.16463099 -0.433754 -0.192561
-0.18181799 -0.41656601 -0.19063801
-0.19900601 -0.382191 -0.195179
-0.21619301 -0.365004 -0.184504
0.14474399 -0.41656601 -0.188215
0.16193201 -0.39937899 -0.18294001
0.213494 -0.33062899 -0.196284
-0.203198 -0.38711801 -0.185149
-0.221224 -0.355551 -0.18781801
-0.23065101 -0.34212101 -0.191164
0.183194 -0.36942801 -0.188371
0.191772 -0.35805899 -0.18951599
0.222864 -0.32073799 -0.19092301
-0.095880501 -0.479249 -0.182642
-0.125653 -0.46812901 -0.182642
-0.0615055 -0.48601201 -0.182642
-0.027130499 -0.48811299 -0.182642
0.0072444701 -0.48724201 -0.182642
-0.130256 -0.466014 -0.182642
0.041619498 -0.48275 -0.182642
0.075994499 -0.47352201 -0.182642
0.089304201 -0.46812901 -0.182642
0.110369 -0.45671701 -0.182642
0.135425 -0.433754 -0.182642
-0.095880501 -0.46812901 -0.195315
-0.0615055 -0.46812901 -0.204625
-0.027130499 -0.46812901 -0.209269
0.0072444701 -0.46812901 -0.20885199
0.041619498 -0.46812901 -0.202557
0.075994499 -0.46812901 -0.18962701
0.110369 -0.433754 -0.211027
-0.158189 -0.42387801 -0.207131
0.13359199 -0.42047399 -0.19976901
-0.19900601 -0.41107199 -0.17404801
-0.200601 -0.40797299 -0.17404801
-0.204906 -0.39937899 -0.17404801
-0.207599 -0.39393401 -0.17404801
-0.209198 -0.39078501 -0.17404801
-0.21408699 -0.382191 -0.17404801
-0.21619301 -0.37896401 -0.17404801
-0.219533 -0.37359801 -0.17404801
-0.22465999 -0.365004 -0.17404801
-0.233381 -0.352972 -0.17404801
-0.23714501 -0.34781599 -0.17404801
-0.250568 -0.33615699 -0.17404801
-0.255137 -0.33062899 -0.17404801
-0.241974 -0.34384099 -0.17404801
-0.247853 -0.339223 -0.17404801
-0.224787 -0.36476299 -0.17404801
-0.230765 -0.35641 -0.17404801
-0.26775599 -0.31545699 -0.17404801
-0.26921099 -0.31344101 -0.17404801
-0.27464899 -0.30484799 -0.17404801
-0.27634901 -0.302497 -0.17404801
-0.28123799 -0.29625401 -0.17404801
-0.28494301 -0.28933501 -0.17404801
-0.285611 -0.28766 -0.17404801
-0.29029801 -0.279066 -0.17404801
-0.29353699 -0.274571 -0.17404801
-0.29669601 -0.270473 -0.17404801
-0.30171299 -0.261879 -0.17404801
-0.302131 -0.26094899 -0.17404801
-0.307055 -0.25328499 -0.17404801
-0.31072399 -0.247086 -0.17404801
-0.31163999 -0.244691 -0.17404801
-0.319318 -0.23392899 -0.17404801
-0.32284999 -0.227504 -0.17404801
-0.31748801 -0.23609801 -0.17404801
-0.32518899 -0.21890999 -0.17404801
-0.32345301 -0.210316 -0.17404801
-0.324258 -0.20172299 -0.17404801
-0.327912 -0.195143 -0.17404801
-0.32887501 -0.193129 -0.17404801
-0.33650601 -0.13673601 -0.17404801
-0.337134 -0.132973 -0.17404801
-0.33886299 -0.124379 -0.17404801
-0.330533 -0.184535 -0.17404801
-0.330396 -0.17594101 -0.17404801
-0.32996801 -0.167348 -0.17404801
-0.331833 -0.15875401 -0.17404801
-0.33427599 -0.15016 -0.17404801
-0.33539999 -0.14156599 -0.17404801
-0.33983099 -0.115785 -0.17404801
-0.33964801 -0.107191 -0.17404801
-0.33800599 -0.098597698 -0.17404801
-0.33650601 -0.094347 -0.17404801
-0.33650601 -0.073838502 -0.17404801
-0.336694 -0.072816402 -0.17404801
-0.33755201 -0.064222701 -0.17404801
-0.33650601 -0.056097198 -0.17404801
-0.33626699 -0.090003997 -0.17404801
-0.33621499 -0.081410199 -0.17404801
-0.33637699 -0.055629 -0.17404801
-0.25916201 -0.32587901 -0.17404801
-0.26229399 -0.32203501 -0.17404801
0.17964999 -0.382191 -0.17404801
0.18538 -0.37359801 -0.17404801
0.187713 -0.37006801 -0.17404801
0.19125301 -0.365004 -0.17404801
0.196307 -0.35835999 -0.17404801
0.19791099 -0.35641 -0.17404801
0.20490099 -0.34831601 -0.17404801
0.20536999 -0.34781599 -0.17404801
0.23444501 -0.31344101 -0.17404801
0.238989 -0.30484799 -0.17404801
0.23927601 -0.30423501 -0.17404801
0.242999 -0.29625401 -0.17404801
0.24635001 -0.28766 -0.17404801
0.247869 -0.28454599 -0.17404801
0.25084901 -0.279066 -0.17404801
0.25560799 -0.270473 -0.17404801
0.25646299 -0.26914299 -0.17404801
0.25946 -0.261879 -0.17404801
0.26213601 -0.25328499 -0.17404801
0.26325199 -0.244691 -0.17404801
0.2649 -0.23609801 -0.17404801
0.265057 -0.235737 -0.17404801
0.26711401 -0.227504 -0.17404801
0.26847801 -0.21890999 -0.17404801
0.27007699 -0.210316 -0.17404801
0.27169999 -0.20172299 -0.17404801
0.273224 -0.193129 -0.17404801
0.273651 -0.187804 -0.17404801
0.27402201 -0.184535 -0.17404801
0.273965 -0.17594101 -0.17404801
0.274259 -0.167348 -0.17404801
0.27558899 -0.15875401 -0.17404801
0.27556899 -0.15016 -0.17404801
0.27421299 -0.14156599 -0.17404801
0.273651 -0.136445 -0.17404801
0.27362099 -0.132973 -0.17404801
0.273651 -0.132065 -0.17404801
0.27388701 -0.124379 -0.17404801
0.274252 -0.115785 -0.17404801
0.273651 -0.108281 -0.17404801
0.27339301 -0.107191 -0.17404801
0.27143601 -0.098597698 -0.17404801
0.270042 -0.090003997 -0.17404801
0.26890901 -0.081410199 -0.17404801
0.26711601 -0.072816402 -0.17404801
0.265057 -0.063960902 -0.17404801
0.26280501 -0.055629 -0.17404801
0.26516101 -0.064222701 -0.17404801
-0.33256599 -0.047035199 -0.17404801
-0.32802001 -0.038441502 -0.17404801
-0.327912 -0.0381613 -0.17404801
-0.325596 -0.0298477 -0.17404801
-0.32397801 -0.021253901 -0.17404801
-0.32091099 -0.0126602 -0.17404801
-0.319318 -0.0102049 -0.17404801
-0.314623 -0.0040664701 -0.17404801
-0.31072399 0.0026719 -0.17404801
-0.30969399 0.0045272699 -0.17404801
-0.30545601 0.0131211 -0.17404801
-0.302131 0.019062901 -0.17404801
-0.30041301 0.021714799 -0.17404801
-0.294866 0.0303085 -0.17404801
-0.29353699 0.032287199 -0.17404801
-0.288679 0.038902301 -0.17404801
-0.28494301 0.044701599 -0.17404801
-0.28295901 0.047495998 -0.17404801
-0.27739599 0.0560898 -0.17404801
-0.27634901 0.058485001 -0.17404801
-0.27256399 0.064683601 -0.17404801
-0.26775599 0.070455603 -0.17404801
-0.264956 0.073277302 -0.17404801
-0.25916201 0.080396898 -0.17404801
-0.25792301 0.081871003 -0.17404801
-0.250568 0.087598197 -0.17404801
-0.245974 0.090464801 -0.17404801
-0.241974 0.092559703 -0.17404801
-0.235245 0.099058598 -0.17404801
-0.233381 0.101089 -0.17404801
-0.224787 0.106285 -0.17404801
-0.221946 0.107652 -0.17404801
-0.21619301 0.110813 -0.17404801
-0.208359 0.116246 -0.17404801
-0.207599 0.116845 -0.17404801
-0.19900601 0.123586 -0.17404801
-0.197363 0.12484 -0.17404801
-0.190412 0.130173 -0.17404801
-0.185403 0.133434 -0.17404801
-0.18181799 0.135132 -0.17404801
-0.173224 0.139007 -0.17404801
-0.166169 0.14202701 -0.17404801
-0.16463099 0.142575 -0.17404801
-0.156037 0.14512099 -0.17404801
-0.147443 0.148026 -0.17404801
-0.141462 0.150621 -0.17404801
-0.13884901 0.151685 -0.17404801
-0.130256 0.154559 -0.17404801
-0.121662 0.15675201 -0.17404801
-0.113068 0.15913799 -0.17404801
-0.112844 0.159215 -0.17404801
-0.104474 0.16171999 -0.17404801
-0.095880501 0.161897 -0.17404801
-0.0872868 0.161356 -0.17404801
-0.078693002 0.161522 -0.17404801
-0.070099302 0.161165 -0.17404801
-0.0615055 0.16134299 -0.17404801
-0.052911799 0.16294 -0.17404801
-0.044318002 0.16315299 -0.17404801
-0.027130499 0.15831 -0.17404801
-0.030862801 0.159215 -0.17404801
-0.035724301 0.16065 -0.17404801
-0.018536801 0.156679 -0.17404801
-0.0099430103 0.156195 -0.17404801
-0.00134927 0.155478 -0.17404801
0.0072444701 0.153622 -0.17404801
0.260905 -0.047035199 -0.17404801
0.257687 -0.038441502 -0.17404801
0.25646299 -0.033967599 -0.17404801
0.25454101 -0.0298477 -0.17404801
0.25116301 -0.021253901 -0.17404801
0.247869 -0.0101507 -0.17404801
0.243855 -0.0040664701 -0.17404801
0.23927601 0.00172687 -0.17404801
0.23754101 0.0045272699 -0.17404801
0.232281 0.0131211 -0.17404801
0.248872 -0.0126602 -0.17404801
0.213494 0.0356532 -0.17404801
0.21134099 0.038902301 -0.17404801
0.20490099 0.047442898 -0.17404801
0.20485 0.047495998 -0.17404801
0.17911901 0.071878798 -0.17404801
0.17728899 0.073277302 -0.17404801
0.170526 0.079147197 -0.17404801
0.16831601 0.081871003 -0.17404801
0.196307 0.055488002 -0.17404801
0.19544999 0.0560898 -0.17404801
0.187713 0.063250303 -0.17404801
0.186511 0.064683601 -0.17404801
0.230682 0.0152757 -0.17404801
0.22547799 0.021714799 -0.17404801
0.22208799 0.026126301 -0.17404801
0.218279 0.0303085 -0.17404801
0.033025701 0.149178 -0.17404801
0.0244672 0.150621 -0.17404801
0.041619498 0.14708599 -0.17404801
0.050213199 0.145606 -0.17404801
0.058807001 0.14342301 -0.17404801
0.067400701 0.13986699 -0.17404801
0.0618295 0.14202701 -0.17404801
0.075994499 0.135593 -0.17404801
0.14474399 0.097740397 -0.17404801
0.142845 0.099058598 -0.17404801
0.118963 0.115701 -0.17404801
0.118201 0.116246 -0.17404801
0.12755699 0.110157 -0.17404801
0.136151 0.104457 -0.17404801
0.131587 0.107652 -0.17404801
0.0845882 0.131761 -0.17404801
0.0802119 0.133434 -0.17404801
0.093181998 0.127846 -0.17404801
0.101776 0.124196 -0.17404801
0.0998796 0.12484 -0.17404801
0.110369 0.12108 -0.17404801
0.0158382 0.152091 -0.17404801
0.024431899 0.150627 -0.17404801
0.16193201 0.086456001 -0.17404801
0.154512 0.090464801 -0.17404801
0.153338 0.091402903 -0.17404801
-0.19900601 -0.40797299 -0.175997
-0.19900601 -0.39937899 -0.18175299
-0.207599 -0.39078501 -0.176107
-0.21619301 -0.37359801 -0.177753
-0.233381 -0.34781599 -0.17884199
-0.250568 -0.33062899 -0.180465
-0.241974 -0.339223 -0.179777
-0.224787 -0.35641 -0.180692
-0.26775599 -0.31344101 -0.17594799
-0.27634901 -0.29625401 -0.17958
-0.28494301 -0.28766 -0.17497399
-0.29353699 -0.270473 -0.17747299
-0.31072399 -0.244691 -0.176027
-0.319318 -0.227504 -0.178688
-0.319318 -0.21890999 -0.180742
-0.319318 -0.210316 -0.179756
-0.319318 -0.20172299 -0.18088999
-0.327912 -0.193129 -0.17491101
-0.33650601 -0.132973 -0.174659
-0.33650601 -0.124379 -0.176329
-0.327912 -0.184535 -0.177101
-0.327912 -0.17594101 -0.17700499
-0.327912 -0.167348 -0.177558
-0.327912 -0.15875401 -0.17933001
-0.327912 -0.15016 -0.18134899
-0.327912 -0.14156599 -0.182045
-0.327912 -0.132973 -0.182238
-0.33650601 -0.115785 -0.177551
-0.33650601 -0.107191 -0.17800599
-0.33650601 -0.098597698 -0.17561901
-0.33650601 -0.072816402 -0.17430399
-0.33650601 -0.064222701 -0.17550801
-0.327912 -0.055629 -0.182216
-0.25916201 -0.32203501 -0.177505
0.17911901 -0.382191 -0.175165
0.196307 -0.35641 -0.178689
0.20490099 -0.34781599 -0.175309
0.25646299 -0.261879 -0.182349
0.265057 -0.227504 -0.17950299
0.265057 -0.21890999 -0.18176299
0.273651 -0.184535 -0.17601299
0.273651 -0.17594101 -0.17495701
0.273651 -0.167348 -0.17507599
0.273651 -0.15875401 -0.178946
0.273651 -0.15016 -0.177596
0.273651 -0.14156599 -0.174854
0.273651 -0.124379 -0.174477
0.273651 -0.115785 -0.175091
0.265057 -0.090003997 -0.182502
0.265057 -0.081410199 -0.179763
0.265057 -0.072816402 -0.17712501
0.265057 -0.064222701 -0.17419399
-0.327912 -0.047035199 -0.177735
-0.327912 -0.038441502 -0.174164
-0.319318 -0.038441502 -0.182569
-0.319318 -0.0298477 -0.180746
-0.319318 -0.021253901 -0.179324
-0.319318 -0.0126602 -0.175276
-0.31072399 -0.0126602 -0.18027
-0.31072399 -0.0040664701 -0.176634
-0.302131 0.0045272699 -0.180236
-0.302131 0.0131211 -0.17611
-0.29353699 0.021714799 -0.178946
-0.29353699 0.0303085 -0.17501099
-0.28494301 0.0303085 -0.181068
-0.28494301 0.038902301 -0.17693301
-0.27634901 0.038902301 -0.18260001
-0.27634901 0.047495998 -0.17946
-0.27634901 0.0560898 -0.174859
-0.26775599 0.0560898 -0.180962
-0.26775599 0.064683601 -0.176544
-0.25916201 0.064683601 -0.18198299
-0.25916201 0.073277302 -0.17774101
-0.250568 0.081871003 -0.177512
-0.241974 0.081871003 -0.18108
-0.241974 0.090464801 -0.17520501
-0.233381 0.090464801 -0.18006399
-0.233381 0.099058598 -0.17512
-0.224787 0.099058598 -0.179386
-0.21619301 0.107652 -0.176275
-0.207599 0.107652 -0.18034901
-0.207599 0.116246 -0.17439801
-0.19900601 0.116246 -0.178615
-0.190412 0.12484 -0.17736299
-0.18181799 0.12484 -0.181595
-0.18181799 0.133434 -0.175377
-0.173224 0.133434 -0.178636
-0.16463099 0.133434 -0.181226
-0.16463099 0.14202701 -0.17451
-0.156037 0.14202701 -0.176744
-0.147443 0.14202701 -0.178591
-0.13884901 0.14202701 -0.180775
-0.130256 0.14202701 -0.182629
-0.13884901 0.150621 -0.174853
-0.130256 0.150621 -0.176902
-0.121662 0.150621 -0.178124
-0.113068 0.150621 -0.179492
-0.104474 0.150621 -0.180787
-0.095880501 0.150621 -0.181527
-0.044318002 0.150621 -0.182515
-0.035724301 0.150621 -0.18110099
-0.027130499 0.150621 -0.18093801
-0.018536801 0.150621 -0.180797
-0.0099430103 0.150621 -0.17968599
-0.00134927 0.150621 -0.17801701
0.0072444701 0.150621 -0.17644
-0.104474 0.159215 -0.17527901
-0.095880501 0.159215 -0.175418
-0.0872868 0.159215 -0.175395
-0.078693002 0.159215 -0.17578299
-0.070099302 0.159215 -0.17542
-0.0615055 0.159215 -0.175611
-0.052911799 0.159215 -0.17713
-0.044318002 0.159215 -0.176928
-0.035724301 0.159215 -0.17492101
0.247869 -0.0298477 -0.181878
0.247869 -0.021253901 -0.17900801
0.25646299 -0.047035199 -0.178707
0.25646299 -0.038441502 -0.17536999
0.247869 -0.0126602 -0.175267
0.23927601 -0.0040664701 -0.17835499
0.230682 0.0045272699 -0.181925
0.22208799 0.0131211 -0.18254299
0.230682 0.0131211 -0.17572001
0.213494 0.0303085 -0.176834
0.196307 0.047495998 -0.18016499
0.20490099 0.038902301 -0.179196
0.17911901 0.064683601 -0.17916299
0.16193201 0.073277302 -0.18224099
0.153338 0.081871003 -0.18018501
0.16193201 0.081871003 -0.177213
0.170526 0.073277302 -0.178004
0.187713 0.0560898 -0.178697
0.22208799 0.021714799 -0.176875
0.0158382 0.14202701 -0.182073
0.024431899 0.14202701 -0.181162
0.0158382 0.150621 -0.175183
0.024431899 0.150621 -0.174052
0.033025701 0.14202701 -0.180144
0.041619498 0.14202701 -0.178499
0.067400701 0.133434 -0.179635
0.075994499 0.133434 -0.175929
0.050213199 0.14202701 -0.17701299
0.058807001 0.14202701 -0.175073
0.093181998 0.116246 -0.182
0.110369 0.107652 -0.182119
0.101776 0.116246 -0.179258
0.110369 0.116246 -0.177046
0.12755699 0.099058598 -0.180823
0.136151 0.090464801 -0.182392
0.14474399 0.090464801 -0.17867599
0.136151 0.099058598 -0.177288
0.118963 0.107652 -0.179066
0.12755699 0.107652 -0.17574599
0.0845882 0.12484 -0.179533
0.093181998 0.12484 -0.175934
0.153338 0.090464801 -0.174615
-0.207599 -0.408719 -0.165454
-0.207977 -0.40797299 -0.165454
-0.203711 -0.41656601 -0.165454
-0.212374 -0.39937899 -0.165454
-0.233381 -0.368121 -0.165454
-0.236358 -0.365004 -0.165454
-0.21619301 -0.39192301 -0.165454
-0.21682601 -0.39078501 -0.165454
-0.221586 -0.382191 -0.165454
-0.224787 -0.37669301 -0.165454
-0.227916 -0.37359801 -0.165454
-0.250568 -0.34990901 -0.165454
-0.25218499 -0.34781599 -0.165454
-0.241974 -0.35910699 -0.165454
-0.24431001 -0.35641 -0.165454
-0.25804701 -0.339223 -0.165454
-0.25916201 -0.33753201 -0.165454
-0.264438 -0.33062899 -0.165454
-0.26775599 -0.32642201 -0.165454
-0.27184299 -0.32203501 -0.165454
-0.27634901 -0.31705099 -0.165454
-0.279091 -0.31344101 -0.165454
-0.28494301 -0.29982099 -0.165454
-0.28693399 -0.29625401 -0.165454
-0.283263 -0.30484799 -0.165454
-0.302131 -0.27348199 -0.165454
-0.30403799 -0.270473 -0.165454
-0.30890799 -0.261879 -0.165454
-0.29197201 -0.28766 -0.165454
-0.29353699 -0.28509301 -0.165454
-0.29820299 -0.279066 -0.165454
-0.31072399 -0.259929 -0.165454
-0.31346399 -0.25328499 -0.165454
-0.31708601 -0.244691 -0.165454
-0.319318 -0.24329799 -0.165454
-0.32529899 -0.23609801 -0.165454
-0.326767 -0.227504 -0.165454
-0.327912 -0.224617 -0.165454
-0.330919 -0.21890999 -0.165454
-0.33107799 -0.210316 -0.165454
-0.33271 -0.20172299 -0.165454
-0.33586001 -0.193129 -0.165454
-0.33650601 -0.176612 -0.165454
-0.33666199 -0.17594101 -0.165454
-0.338146 -0.167348 -0.165454
-0.33884099 -0.15875401 -0.165454
-0.33923599 -0.15016 -0.165454
-0.34041601 -0.14156599 -0.165454
-0.34371299 -0.132973 -0.165454
-0.345099 -0.129244 -0.165454
-0.346636 -0.124379 -0.165454
-0.33595201 -0.184535 -0.165454
-0.34685901 -0.115785 -0.165454
-0.34605899 -0.107191 -0.165454
-0.346086 -0.098597698 -0.165454
-0.34619099 -0.090003997 -0.165454
-0.34560499 -0.081410199 -0.165454
-0.345099 -0.078044198 -0.165454
-0.34487399 -0.072816402 -0.165454
-0.344614 -0.064222701 -0.165454
-0.34399599 -0.055629 -0.165454
0.18401401 -0.382191 -0.165454
0.187713 -0.376028 -0.165454
0.18914901 -0.37359801 -0.165454
0.19480599 -0.365004 -0.165454
0.196307 -0.36288401 -0.165454
0.20145901 -0.35641 -0.165454
0.20490099 -0.35250601 -0.165454
0.209051 -0.34781599 -0.165454
0.237845 -0.31344101 -0.165454
0.23927601 -0.310776 -0.165454
0.242148 -0.30484799 -0.165454
0.24645101 -0.29625401 -0.165454
0.247869 -0.29297599 -0.165454
0.248559 -0.28766 -0.165454
0.252159 -0.279066 -0.165454
0.25646299 -0.27351999 -0.165454
0.25797501 -0.270473 -0.165454
0.26184601 -0.261879 -0.165454
0.265028 -0.25328499 -0.165454
0.265057 -0.25310501 -0.165454
0.26609501 -0.244691 -0.165454
0.26869899 -0.23609801 -0.165454
0.27051899 -0.227504 -0.165454
0.271779 -0.21890999 -0.165454
0.273651 -0.21213301 -0.165454
0.27406999 -0.210316 -0.165454
0.27603099 -0.20172299 -0.165454
0.276629 -0.193129 -0.165454
0.277242 -0.184535 -0.165454
0.27795199 -0.17594101 -0.165454
0.27900401 -0.167348 -0.165454
0.280471 -0.15875401 -0.165454
0.281129 -0.15016 -0.165454
0.280361 -0.14156599 -0.165454
0.28040099 -0.132973 -0.165454
0.27972901 -0.124379 -0.165454
0.27919501 -0.115785 -0.165454
0.27944601 -0.107191 -0.165454
0.27836001 -0.098597698 -0.165454
0.276317 -0.090003997 -0.165454
0.27457801 -0.081410199 -0.165454
0.273698 -0.072816402 -0.165454
0.273651 -0.072511703 -0.165454
0.272311 -0.064222701 -0.165454
0.26977801 -0.055629 -0.165454
-0.34233701 -0.047035199 -0.165454
-0.33989099 -0.038441502 -0.165454
-0.33650601 -0.0303698 -0.165454
-0.33623499 -0.0298477 -0.165454
-0.33185199 -0.021253901 -0.165454
-0.32914299 -0.0126602 -0.165454
-0.327912 -0.0082006501 -0.165454
-0.32642701 -0.0040664701 -0.165454
-0.32239601 0.0045272699 -0.165454
-0.31944501 0.0131211 -0.165454
-0.319318 0.0134425 -0.165454
-0.31327599 0.021714799 -0.165454
-0.31072399 0.0265831 -0.165454
-0.30815399 0.0303085 -0.165454
-0.30260801 0.038902301 -0.165454
-0.302131 0.039723199 -0.165454
-0.295564 0.047495998 -0.165454
-0.29353699 0.050078601 -0.165454
-0.289363 0.0560898 -0.165454
-0.28494301 0.064636998 -0.165454
-0.28492001 0.064683601 -0.165454
-0.281791 0.073277302 -0.165454
-0.27634901 0.080368899 -0.165454
-0.27354699 0.081871003 -0.165454
-0.26775599 0.087504096 -0.165454
-0.265071 0.090464801 -0.165454
-0.25916201 0.095690802 -0.165454
-0.25618601 0.099058598 -0.165454
-0.250568 0.106393 -0.165454
-0.249797 0.107652 -0.165454
-0.241974 0.111618 -0.165454
-0.233381 0.113817 -0.165454
-0.22912499 0.116246 -0.165454
-0.224787 0.118318 -0.165454
-0.21619301 0.124255 -0.165454
-0.21552201 0.12484 -0.165454
-0.207599 0.13156299 -0.165454
-0.205194 0.133434 -0.165454
-0.19900601 0.137272 -0.165454
-0.190412 0.141862 -0.165454
-0.19007701 0.14202701 -0.165454
-0.18181799 0.145978 -0.165454
-0.173224 0.149812 -0.165454
-0.17106301 0.150621 -0.165454
-0.16463099 0.15268999 -0.165454
-0.156037 0.155972 -0.165454
-0.14921001 0.159215 -0.165454
-0.147443 0.159927 -0.165454
-0.13884901 0.163067 -0.165454
-0.130256 0.16624001 -0.165454
-0.12508 0.16780899 -0.165454
-0.121662 0.168621 -0.165454
-0.113068 0.172474 -0.165454
-0.106899 0.176402 -0.165454
-0.095880501 0.175157 -0.165454
-0.103071 0.176402 -0.165454
-0.104474 0.176504 -0.165454
-0.0872868 0.17367899 -0.165454
-0.078693002 0.173491 -0.165454
-0.070099302 0.173032 -0.165454
-0.0615055 0.172224 -0.165454
-0.052911799 0.17312901 -0.165454
-0.044318002 0.17394 -0.165454
-0.035724301 0.17215601 -0.165454
-0.027130499 0.168749 -0.165454
-0.018536801 0.164407 -0.165454
-0.0252683 0.16780899 -0.165454
-0.0099430103 0.161204 -0.165454
-0.00134927 0.160734 -0.165454
0.0072444701 0.16154499 -0.165454
0.26785001 -0.047035199 -0.165454
0.26552999 -0.038441502 -0.165454
0.265057 -0.037582699 -0.165454
0.26125601 -0.0298477 -0.165454
0.25816599 -0.021253901 -0.165454
0.247869 0.0034698199 -0.165454
0.247199 0.0045272699 -0.165454
0.242489 0.0131211 -0.165454
0.25646299 -0.0141341 -0.165454
0.256062 -0.0126602 -0.165454
0.252698 -0.0040664701 -0.165454
0.213494 0.048849799 -0.165454
0.20749 0.0560898 -0.165454
0.20490099 0.0599714 -0.165454
0.20096201 0.064683601 -0.165454
0.196307 0.071294501 -0.165454
0.19313601 0.073277302 -0.165454
0.187713 0.076425202 -0.165454
0.181852 0.081871003 -0.165454
0.230682 0.027813001 -0.165454
0.228414 0.0303085 -0.165454
0.23927601 0.018531799 -0.165454
0.236321 0.021714799 -0.165454
0.222175 0.038902301 -0.165454
0.22208799 0.039066002 -0.165454
0.214911 0.047495998 -0.165454
0.075994499 0.14722501 -0.165454
0.068223499 0.150621 -0.165454
0.14474399 0.112141 -0.165454
0.137063 0.116246 -0.165454
0.110369 0.13253701 -0.165454
0.108001 0.133434 -0.165454
0.093181998 0.140334 -0.165454
0.088700801 0.14202701 -0.165454
0.0845882 0.143874 -0.165454
0.101776 0.136361 -0.165454
0.12755699 0.120997 -0.165454
0.1223 0.12484 -0.165454
0.118963 0.12752999 -0.165454
0.136151 0.116641 -0.165454
0.0158382 0.161273 -0.165454
0.024431899 0.161947 -0.165454
0.041619498 0.15636501 -0.165454
0.034678299 0.159215 -0.165454
0.033025701 0.160054 -0.165454
0.050213199 0.155774 -0.165454
0.058807001 0.154984 -0.165454
0.067400701 0.15101901 -0.165454
0.16193201 0.096740998 -0.165454
0.158483 0.099058598 -0.165454
0.17911901 0.084692299 -0.165454
0.17441501 0.090464801 -0.165454
0.170526 0.093000799 -0.165454
0.153338 0.103385 -0.165454
0.14973401 0.107652 -0.165454
0.17911901 -0.389658 -0.165454
0.213494 -0.34279501 -0.165454
0.216529 -0.339223 -0.165454
