# .PCD v0.7 - Point Cloud Data file format
VERSION 0.7
FIELDS x y z
SIZE 4 4 4
TYPE F F F
COUNT 1 1 1
WIDTH 1444
HEIGHT 1
VIEWPOINT 0 0 0 1 0 0 0
POINTS 1444
DATA ascii
0.229955 -0.261879 -0.42326701
0.223349 -0.227504 -0.42326701
0.21358401 -0.193129 -0.42326701
0.041619498 -0.067281298 -0.42326701
0.075994499 -0.081063896 -0.42326701
0.110369 -0.097648099 -0.42326701
0.095203802 -0.090003997 -0.42326701
0.14474399 -0.119764 -0.42326701
0.213494 -0.19291 -0.42326701
0.19009 -0.15875401 -0.42326701
0.17911901 -0.147668 -0.42326701
0.151705 -0.124379 -0.42326701
0.0072444701 -0.29625401 -0.445351
-0.16463099 -0.15875401 -0.44649899
-0.16463099 -0.124379 -0.44938999
-0.130256 -0.090003997 -0.444985
0.075994499 -0.33062899 -0.435276
0.14474399 -0.365004 -0.42698699
0.110369 -0.33062899 -0.45394301
0.14474399 -0.33062899 -0.45621699
0.17911901 -0.365004 -0.428105
0.17911901 -0.33062899 -0.447658
0.213494 -0.33062899 -0.431898
0.213494 -0.29625401 -0.44125199
0.213494 -0.261879 -0.44344899
0.213494 -0.227504 -0.44097701
0.213494 -0.193129 -0.42358199
0.14474399 -0.124379 -0.43645301
0.075994499 -0.090003997 -0.44413099
0.17911901 -0.15875401 -0.448109
-0.130256 -0.22282 -0.38889101
-0.151283 -0.193129 -0.38889101
-0.0615055 -0.28589299 -0.38889101
-0.091425799 -0.261879 -0.38889101
-0.027130499 -0.30711499 -0.38889101
-0.045906398 -0.29625401 -0.38889101
0.0072444701 -0.32389101 -0.38889101
-0.095880501 -0.25787601 -0.38889101
-0.12621801 -0.227504 -0.38889101
-0.16463099 -0.168936 -0.38889101
-0.16966701 -0.15875401 -0.38889101
-0.18020201 -0.124379 -0.38889101
-0.17133901 -0.090003997 -0.38889101
-0.16463099 -0.0815368 -0.38889101
-0.130256 -0.057323799 -0.38889101
-0.12643801 -0.055629 -0.38889101
0.041619498 -0.33892 -0.38889101
0.022449801 -0.33062899 -0.38889101
0.075994499 -0.35419899 -0.38889101
0.110369 -0.37141401 -0.38889101
0.097706698 -0.365004 -0.38889101
0.14474399 -0.38729799 -0.38889101
0.17911901 -0.38333201 -0.38889101
0.208419 -0.365004 -0.38889101
0.213494 -0.36033699 -0.38889101
0.236405 -0.33062899 -0.38889101
0.243403 -0.29625401 -0.38889101
0.239843 -0.261879 -0.38889101
0.23241501 -0.227504 -0.38889101
0.21936201 -0.193129 -0.38889101
0.075994499 -0.061463799 -0.38889101
0.062991902 -0.055629 -0.38889101
0.14474399 -0.104358 -0.38889101
0.124152 -0.090003997 -0.38889101
0.110369 -0.081747897 -0.38889101
0.213494 -0.181374 -0.38889101
0.19834501 -0.15875401 -0.38889101
0.17911901 -0.135956 -0.38889101
0.16819 -0.124379 -0.38889101
-0.095880501 -0.043646999 -0.38889101
-0.0615055 -0.035584498 -0.38889101
-0.027130499 -0.034880798 -0.38889101
0.0072444701 -0.039308999 -0.38889101
0.041619498 -0.048060399 -0.38889101
-0.027130499 -0.29625401 -0.41365299
-0.16463099 -0.090003997 -0.399322
-0.095880501 -0.055629 -0.405393
-0.0615055 -0.055629 -0.41770899
-0.027130499 -0.055629 -0.420481
0.0072444701 -0.055629 -0.414444
0.041619498 -0.33062899 -0.40755501
0.110369 -0.365004 -0.404466
0.041619498 -0.055629 -0.40097699
0.110369 -0.090003997 -0.405081
0.0072444701 -0.339304 -0.35451701
-0.0137086 -0.33062899 -0.35451701
-0.130256 -0.23116 -0.35451701
-0.133605 -0.227504 -0.35451701
-0.16378599 -0.193129 -0.35451701
-0.0615055 -0.30281499 -0.35451701
-0.069409899 -0.29625401 -0.35451701
-0.095880501 -0.268839 -0.35451701
-0.102194 -0.261879 -0.35451701
-0.027130499 -0.324247 -0.35451701
-0.19900601 -0.139121 -0.35451701
-0.203317 -0.124379 -0.35451701
-0.16463099 -0.192029 -0.35451701
-0.189285 -0.15875401 -0.35451701
-0.19900601 -0.091343597 -0.35451701
-0.19845299 -0.090003997 -0.35451701
-0.17119899 -0.055629 -0.35451701
0.041619498 -0.35171801 -0.35451701
0.075994499 -0.36314499 -0.35451701
0.110369 -0.375882 -0.35451701
0.081673399 -0.365004 -0.35451701
0.14474399 -0.38169101 -0.35451701
0.17911901 -0.36673 -0.35451701
0.181794 -0.365004 -0.35451701
0.213494 -0.336101 -0.35451701
0.21725599 -0.33062899 -0.35451701
0.231565 -0.29625401 -0.35451701
0.234264 -0.261879 -0.35451701
0.231462 -0.227504 -0.35451701
0.222247 -0.193129 -0.35451701
0.110369 -0.058459502 -0.35451701
0.10573 -0.055629 -0.35451701
0.14474399 -0.083392598 -0.35451701
0.213494 -0.17065001 -0.35451701
0.207929 -0.15875401 -0.35451701
0.184945 -0.124379 -0.35451701
0.17911901 -0.116706 -0.35451701
0.153014 -0.090003997 -0.35451701
-0.16463099 -0.050850101 -0.35451701
-0.130256 -0.028773701 -0.35451701
-0.113248 -0.021253901 -0.35451701
-0.095880501 -0.0155345 -0.35451701
-0.0615055 -0.0092059998 -0.35451701
-0.027130499 -0.0092777004 -0.35451701
0.0072444701 -0.0135902 -0.35451701
0.041619498 -0.021721199 -0.35451701
0.040042002 -0.021253901 -0.35451701
0.075994499 -0.037189402 -0.35451701
0.0072444701 -0.33062899 -0.37392601
-0.130256 -0.227504 -0.36628899
-0.0615055 -0.29625401 -0.36586499
-0.095880501 -0.261879 -0.37289199
-0.19900601 -0.124379 -0.35952801
-0.16463099 -0.055629 -0.36006299
-0.130256 -0.055629 -0.386576
0.075994499 -0.055629 -0.37933999
0.14474399 -0.090003997 -0.36412099
0.17911901 -0.124379 -0.365444
-0.095880501 -0.021253901 -0.361617
-0.0615055 -0.021253901 -0.36989301
-0.027130499 -0.021253901 -0.36991599
0.0072444701 -0.021253901 -0.36432001
-0.027130499 -0.34483701 -0.32014099
-0.061028101 -0.33062899 -0.32014099
0.0072444701 -0.35512701 -0.32014099
-0.130256 -0.25099501 -0.32014099
-0.15139499 -0.227504 -0.32014099
-0.16463099 -0.21393999 -0.32014099
-0.185497 -0.193129 -0.32014099
-0.095880501 -0.29947501 -0.32014099
-0.098210402 -0.29625401 -0.32014099
-0.0615055 -0.33038601 -0.32014099
-0.121302 -0.261879 -0.32014099
-0.19900601 -0.17921101 -0.32014099
-0.21836101 -0.15875401 -0.32014099
-0.233105 -0.124379 -0.32014099
-0.22835401 -0.090003997 -0.32014099
-0.206383 -0.055629 -0.32014099
0.075994499 -0.367917 -0.32014099
0.054215699 -0.365004 -0.32014099
0.041619498 -0.36277801 -0.32014099
0.110369 -0.370758 -0.32014099
0.138074 -0.365004 -0.32014099
0.14474399 -0.36237001 -0.32014099
0.17911901 -0.338541 -0.32014099
0.18884 -0.33062899 -0.32014099
0.213494 -0.29722601 -0.32014099
0.213927 -0.29625401 -0.32014099
0.225732 -0.261879 -0.32014099
0.230415 -0.227504 -0.32014099
0.22810701 -0.193129 -0.32014099
0.14474399 -0.056262001 -0.32014099
0.14385299 -0.055629 -0.32014099
0.213494 -0.14034 -0.32014099
0.20587 -0.124379 -0.32014099
0.21992099 -0.15875401 -0.32014099
0.180935 -0.090003997 -0.32014099
0.17911901 -0.087869197 -0.32014099
-0.19900601 -0.047979601 -0.32014099
-0.166676 -0.021253901 -0.32014099
-0.16463099 -0.019961501 -0.32014099
-0.130256 0.00059903 -0.32014099
-0.097933397 0.0131211 -0.32014099
-0.095880501 0.0136454 -0.32014099
-0.0615055 0.019163299 -0.32014099
-0.027130499 0.019173199 -0.32014099
0.0072444701 0.0154203 -0.32014099
0.041619498 0.00743163 -0.32014099
0.020212401 0.0131211 -0.32014099
0.075994499 -0.0095911603 -0.32014099
0.110369 -0.031631101 -0.32014099
0.094682299 -0.021253901 -0.32014099
-0.027130499 -0.33062899 -0.343211
-0.16463099 -0.193129 -0.35280201
-0.095880501 -0.29625401 -0.32221201
-0.19900601 -0.15875401 -0.34248099
-0.19900601 -0.090003997 -0.35388201
-0.19900601 -0.055629 -0.32763901
0.075994499 -0.365004 -0.34228
0.14474399 -0.365004 -0.32466
0.17911901 -0.365004 -0.35267499
0.213494 -0.33062899 -0.35037801
0.110369 -0.055629 -0.35049701
0.213494 -0.15875401 -0.33794001
0.17911901 -0.090003997 -0.322548
-0.16463099 -0.021253901 -0.321637
-0.130256 -0.021253901 -0.34553799
-0.095880501 0.0131211 -0.32078001
-0.0615055 0.0131211 -0.327427
-0.027130499 0.0131211 -0.327463
0.0072444701 0.0131211 -0.32294101
0.041619498 -0.021253901 -0.35391301
0.075994499 -0.021253901 -0.33446899
-0.19900601 -0.36086199 -0.28576601
-0.220763 -0.33062899 -0.28576601
-0.16463099 -0.371649 -0.28576601
-0.19284 -0.365004 -0.28576601
-0.130256 -0.36743799 -0.28576601
-0.122298 -0.365004 -0.28576601
-0.095880501 -0.35934699 -0.28576601
-0.0615055 -0.36237201 -0.28576601
-0.027130499 -0.367982 -0.28576601
-0.0452617 -0.365004 -0.28576601
0.0072444701 -0.37266901 -0.28576601
-0.223535 -0.29625401 -0.28576601
-0.19900601 -0.262541 -0.28576601
-0.19775601 -0.261879 -0.28576601
-0.19900601 -0.21634901 -0.28576601
-0.21613 -0.193129 -0.28576601
-0.19127101 -0.227504 -0.28576601
-0.233381 -0.17397299 -0.28576601
-0.246355 -0.15875401 -0.28576601
-0.257817 -0.124379 -0.28576601
-0.252904 -0.090003997 -0.28576601
-0.236329 -0.055629 -0.28576601
0.041619498 -0.37505099 -0.28576601
0.075994499 -0.374073 -0.28576601
0.110369 -0.36762801 -0.28576601
0.118315 -0.365004 -0.28576601
0.14474399 -0.35183299 -0.28576601
0.175327 -0.33062899 -0.28576601
0.17911901 -0.32737601 -0.28576601
0.207204 -0.29625401 -0.28576601
0.213494 -0.28551599 -0.28576601
0.224399 -0.261879 -0.28576601
0.234447 -0.227504 -0.28576601
0.23668499 -0.193129 -0.28576601
0.23323999 -0.15875401 -0.28576601
0.22261 -0.124379 -0.28576601
0.213494 -0.103821 -0.28576601
0.205871 -0.090003997 -0.28576601
0.17911901 -0.0564836 -0.28576601
0.17828999 -0.055629 -0.28576601
-0.233381 -0.050857101 -0.28576601
-0.20805199 -0.021253901 -0.28576601
-0.19900601 -0.0134546 -0.28576601
-0.16463099 0.0118793 -0.28576601
-0.162486 0.0131211 -0.28576601
-0.130256 0.0307614 -0.28576601
-0.095880501 0.044408701 -0.28576601
-0.082235098 0.047495998 -0.28576601
-0.0615055 0.049906999 -0.28576601
0.0072444701 0.045324702 -0.28576601
-0.0076566902 0.047495998 -0.28576601
-0.027130499 0.049476299 -0.28576601
0.14474399 -0.027054301 -0.28576601
0.13609999 -0.021253901 -0.28576601
0.110369 -0.0034535499 -0.28576601
0.086353503 0.0131211 -0.28576601
0.041619498 0.036535099 -0.28576601
0.075994499 0.019455399 -0.28576601
-0.19900601 -0.33062899 -0.30725899
-0.16463099 -0.365004 -0.298944
-0.130256 -0.365004 -0.28896901
-0.16463099 -0.33062899 -0.312123
-0.130256 -0.33062899 -0.30530599
-0.095880501 -0.33062899 -0.30435199
-0.0615055 -0.33062899 -0.319888
-0.027130499 -0.365004 -0.290057
0.0072444701 -0.365004 -0.300208
-0.19900601 -0.29625401 -0.29710901
-0.16463099 -0.29625401 -0.301523
-0.130256 -0.29625401 -0.30337
-0.16463099 -0.261879 -0.29196301
-0.130256 -0.261879 -0.31064099
-0.19900601 -0.193129 -0.30335
-0.16463099 -0.227504 -0.30451
-0.233381 -0.15875401 -0.301496
-0.233381 -0.124379 -0.319767
-0.233381 -0.090003997 -0.31322101
-0.233381 -0.055629 -0.28954899
0.041619498 -0.365004 -0.31323001
0.17911901 -0.33062899 -0.304748
0.213494 -0.29625401 -0.31897101
0.14474399 -0.055629 -0.319334
0.213494 -0.124379 -0.305354
-0.19900601 -0.021253901 -0.29353899
-0.130256 0.0131211 -0.305437
-0.0615055 0.047495998 -0.288506
-0.027130499 0.047495998 -0.288075
0.041619498 0.0131211 -0.313232
0.075994499 0.0131211 -0.29337099
0.110369 -0.021253901 -0.30695701
-0.19900601 -0.36712399 -0.25139201
-0.201572 -0.365004 -0.25139201
-0.23082 -0.33062899 -0.25139201
-0.16463099 -0.382842 -0.25139201
-0.130256 -0.38797101 -0.25139201
-0.095880501 -0.38934401 -0.25139201
-0.0615055 -0.39097899 -0.25139201
-0.027130499 -0.39278099 -0.25139201
0.0072444701 -0.39340699 -0.25139201
-0.26775599 -0.252976 -0.25139201
-0.27048999 -0.227504 -0.25139201
-0.26833299 -0.193129 -0.25139201
-0.27404901 -0.15875401 -0.25139201
-0.279028 -0.124379 -0.25139201
-0.27545899 -0.090003997 -0.25139201
-0.26775599 -0.063495003 -0.25139201
-0.233381 -0.32549599 -0.25139201
-0.247982 -0.29625401 -0.25139201
-0.26468101 -0.261879 -0.25139201
-0.26460701 -0.055629 -0.25139201
0.041619498 -0.39158601 -0.25139201
0.075994499 -0.38599601 -0.25139201
0.110369 -0.37488699 -0.25139201
0.130988 -0.365004 -0.25139201
0.14474399 -0.35727501 -0.25139201
0.17911901 -0.33265001 -0.25139201
0.181574 -0.33062899 -0.25139201
0.21205699 -0.29625401 -0.25139201
0.213494 -0.29403701 -0.25139201
0.231151 -0.261879 -0.25139201
0.24219 -0.227504 -0.25139201
0.24578699 -0.193129 -0.25139201
0.24496099 -0.15875401 -0.25139201
0.238938 -0.124379 -0.25139201
0.213494 -0.066433802 -0.25139201
0.206938 -0.055629 -0.25139201
0.22554 -0.090003997 -0.25139201
-0.24360099 -0.021253901 -0.25139201
-0.233381 -0.0086288499 -0.25139201
-0.211456 0.0131211 -0.25139201
-0.19900601 0.0231425 -0.25139201
-0.16463099 0.046558399 -0.25139201
-0.16290399 0.047495998 -0.25139201
-0.130256 0.063929401 -0.25139201
-0.095880501 0.076203197 -0.25139201
-0.0615055 0.081167899 -0.25139201
-0.027130499 0.080364503 -0.25139201
0.0072444701 0.075271301 -0.25139201
0.14474399 0.00455022 -0.25139201
0.13204101 0.0131211 -0.25139201
0.041619498 0.065627903 -0.25139201
0.075994499 0.050114501 -0.25139201
0.110369 0.0280175 -0.25139201
0.080809303 0.047495998 -0.25139201
0.17911901 -0.023329001 -0.25139201
0.17688499 -0.021253901 -0.25139201
-0.19900601 -0.365004 -0.26977301
-0.095880501 -0.365004 -0.280426
-0.0615055 -0.365004 -0.28275201
-0.26775599 -0.227504 -0.25382701
-0.26775599 -0.193129 -0.25181499
-0.26775599 -0.15875401 -0.25883099
-0.26775599 -0.124379 -0.26887199
-0.26775599 -0.090003997 -0.26301399
-0.233381 -0.29625401 -0.27617899
-0.233381 -0.261879 -0.275801
-0.19900601 -0.261879 -0.285602
-0.233381 -0.227504 -0.270982
-0.19900601 -0.227504 -0.282381
-0.233381 -0.193129 -0.27246901
0.17911901 -0.33062899 -0.259556
0.213494 -0.090003997 -0.272659
0.17911901 -0.055629 -0.284834
-0.233381 -0.021253901 -0.26149401
-0.19900601 0.0131211 -0.260337
-0.16463099 0.0131211 -0.28444999
-0.130256 0.047495998 -0.267928
-0.095880501 0.047495998 -0.282285
0.0072444701 0.047495998 -0.28311801
0.14474399 -0.021253901 -0.27903199
0.110369 0.0131211 -0.26708701
0.041619498 0.047495998 -0.27234501
0.075994499 0.047495998 -0.25426599
-0.130256 -0.410671 -0.217016
-0.16212501 -0.39937899 -0.217016
-0.19900601 -0.37273899 -0.217016
-0.20695101 -0.365004 -0.217016
-0.233381 -0.335051 -0.217016
-0.236661 -0.33062899 -0.217016
-0.16463099 -0.39821199 -0.217016
-0.095880501 -0.41697499 -0.217016
-0.0615055 -0.419965 -0.217016
-0.027130499 -0.420589 -0.217016
0.0072444701 -0.41892001 -0.217016
-0.26775599 -0.28814399 -0.217016
-0.282572 -0.261879 -0.217016
-0.29579899 -0.227504 -0.217016
-0.29946399 -0.193129 -0.217016
-0.301328 -0.15875401 -0.217016
-0.302131 -0.148886 -0.217016
-0.303388 -0.124379 -0.217016
-0.302131 -0.092369102 -0.217016
-0.301855 -0.090003997 -0.217016
-0.29409701 -0.055629 -0.217016
-0.26278099 -0.29625401 -0.217016
0.041619498 -0.414377 -0.217016
0.075994499 -0.405981 -0.217016
0.0943029 -0.39937899 -0.217016
0.110369 -0.39215401 -0.217016
0.14474399 -0.37135899 -0.217016
0.15363599 -0.365004 -0.217016
0.17911901 -0.344116 -0.217016
0.195088 -0.33062899 -0.217016
0.213494 -0.30874801 -0.217016
0.222399 -0.29625401 -0.217016
0.241078 -0.261879 -0.217016
0.247869 -0.24121401 -0.217016
0.25083801 -0.227504 -0.217016
0.255514 -0.193129 -0.217016
0.256244 -0.15875401 -0.217016
0.252832 -0.124379 -0.217016
0.247869 -0.0993727 -0.217016
0.245353 -0.090003997 -0.217016
0.23150399 -0.055629 -0.217016
-0.27805901 -0.021253901 -0.217016
-0.26775599 -0.0040938901 -0.217016
-0.25508201 0.0131211 -0.217016
-0.233381 0.0367506 -0.217016
-0.221672 0.047495998 -0.217016
-0.19900601 0.064766899 -0.217016
-0.171379 0.081871003 -0.217016
-0.16463099 0.085267402 -0.217016
-0.130256 0.100228 -0.217016
-0.095880501 0.110031 -0.217016
-0.0615055 0.114185 -0.217016
-0.027130499 0.113191 -0.217016
0.0072444701 0.107899 -0.217016
0.14474399 0.041053999 -0.217016
0.135378 0.047495998 -0.217016
0.110369 0.064587198 -0.217016
0.081679203 0.081871003 -0.217016
0.213494 -0.0247798 -0.217016
0.211114 -0.021253901 -0.217016
0.179491 0.0131211 -0.217016
0.17911901 0.0134482 -0.217016
0.041619498 0.098543003 -0.217016
0.075994499 0.084609203 -0.217016
-0.130256 -0.39937899 -0.232656
-0.233381 -0.33062899 -0.233724
-0.095880501 -0.39937899 -0.238406
-0.0615055 -0.39937899 -0.241087
-0.027130499 -0.39937899 -0.24276599
0.0072444701 -0.39937899 -0.242636
-0.26775599 -0.261879 -0.246869
-0.302131 -0.124379 -0.21882001
-0.26775599 -0.055629 -0.247336
0.041619498 -0.39937899 -0.238389
0.075994499 -0.39937899 -0.226845
0.14474399 -0.365004 -0.229697
0.213494 -0.29625401 -0.24591701
0.247869 -0.227504 -0.228333
0.247869 -0.193129 -0.243269
0.247869 -0.15875401 -0.24185
0.247869 -0.124379 -0.22931799
0.213494 -0.055629 -0.241981
-0.26775599 -0.021253901 -0.227102
-0.233381 0.0131211 -0.234255
-0.19900601 0.047495998 -0.230455
-0.16463099 0.047495998 -0.250516
-0.16463099 0.081871003 -0.219749
-0.130256 0.081871003 -0.233916
-0.095880501 0.081871003 -0.245233
-0.0615055 0.081871003 -0.25059199
-0.027130499 0.081871003 -0.249671
0.0072444701 0.081871003 -0.24387801
0.14474399 0.0131211 -0.24265
0.041619498 0.081871003 -0.23364
0.075994499 0.081871003 -0.219514
0.110369 0.047495998 -0.23216601
0.17911901 -0.021253901 -0.24929599
0.17911901 0.0131211 -0.217289
-0.130256 -0.44207901 -0.182642
-0.151939 -0.433754 -0.182642
-0.16463099 -0.42753401 -0.182642
-0.198998 -0.39937899 -0.182642
-0.19900601 -0.399371 -0.182642
-0.22849 -0.365004 -0.182642
-0.233381 -0.358888 -0.182642
-0.25748599 -0.33062899 -0.182642
-0.095880501 -0.45000201 -0.182642
-0.0615055 -0.453385 -0.182642
-0.027130499 -0.45348701 -0.182642
0.0072444701 -0.450645 -0.182642
-0.26775599 -0.316109 -0.182642
-0.28083399 -0.29625401 -0.182642
-0.30179301 -0.261879 -0.182642
-0.302131 -0.26120299 -0.182642
-0.315323 -0.227504 -0.182642
-0.32343 -0.193129 -0.182642
-0.32820699 -0.15875401 -0.182642
-0.33152199 -0.124379 -0.182642
-0.33178699 -0.090003997 -0.182642
-0.32670701 -0.055629 -0.182642
0.041619498 -0.44458899 -0.182642
0.075994499 -0.434764 -0.182642
0.078889497 -0.433754 -0.182642
0.110369 -0.42052799 -0.182642
0.14249 -0.39937899 -0.182642
0.14474399 -0.397771 -0.182642
0.179096 -0.365004 -0.182642
0.17911901 -0.364979 -0.182642
0.210945 -0.33062899 -0.182642
0.213494 -0.327407 -0.182642
0.236439 -0.29625401 -0.182642
0.247869 -0.27206799 -0.182642
0.25188801 -0.261879 -0.182642
0.26304901 -0.227504 -0.182642
0.26933599 -0.193129 -0.182642
0.27174699 -0.15875401 -0.182642
0.270632 -0.124379 -0.182642
0.26564199 -0.090003997 -0.182642
0.25649399 -0.055629 -0.182642
-0.314509 -0.021253901 -0.182642
-0.302131 0.0043182401 -0.182642
-0.29717699 0.0131211 -0.182642
-0.27339 0.047495998 -0.182642
-0.26775599 0.0548063 -0.182642
-0.241797 0.081871003 -0.182642
-0.233381 0.088842198 -0.182642
-0.19900601 0.112965 -0.182642
-0.193387 0.116246 -0.182642
-0.16463099 0.130602 -0.182642
-0.130256 0.143507 -0.182642
-0.097560398 0.150621 -0.182642
-0.027130499 0.149388 -0.182642
-0.035803899 0.150621 -0.182642
0.0072444701 0.144069 -0.182642
-0.095880501 0.15084399 -0.182642
-0.0615055 0.152606 -0.182642
0.247869 -0.0307476 -0.182642
0.243894 -0.021253901 -0.182642
0.222482 0.0131211 -0.182642
0.213494 0.0243643 -0.182642
0.19169299 0.047495998 -0.182642
0.17911901 0.058903702 -0.182642
0.150694 0.081871003 -0.182642
0.041619498 0.137245 -0.182642
0.075994499 0.125669 -0.182642
0.110369 0.108835 -0.182642
0.096642502 0.116246 -0.182642
0.14474399 0.086077601 -0.182642
-0.130256 -0.433754 -0.190942
-0.16463099 -0.39937899 -0.215177
-0.095880501 -0.433754 -0.198737
-0.0615055 -0.433754 -0.20215
-0.027130499 -0.433754 -0.20252401
0.0072444701 -0.433754 -0.20004401
-0.26775599 -0.29625401 -0.204354
-0.302131 -0.227504 -0.20471799
-0.302131 -0.193129 -0.212767
-0.302131 -0.15875401 -0.21586899
-0.302131 -0.090003997 -0.216656
-0.302131 -0.055629 -0.20810901
0.041619498 -0.433754 -0.19402
0.075994499 -0.433754 -0.18370301
0.110369 -0.39937899 -0.206688
0.247869 -0.261879 -0.194354
0.247869 -0.090003997 -0.212093
0.247869 -0.055629 -0.194152
-0.302131 -0.021253901 -0.19396099
-0.26775599 0.0131211 -0.206679
-0.26775599 0.047495998 -0.18623599
-0.233381 0.047495998 -0.209831
-0.233381 0.081871003 -0.186663
-0.19900601 0.081871003 -0.204523
-0.16463099 0.116246 -0.19256
-0.130256 0.116246 -0.20355199
-0.095880501 0.116246 -0.211408
-0.0615055 0.116246 -0.21504501
-0.095880501 0.150621 -0.182804
-0.0615055 0.150621 -0.184251
-0.027130499 0.116246 -0.21406899
0.0072444701 0.116246 -0.20911901
0.14474399 0.047495998 -0.211766
0.110369 0.081871003 -0.20285299
0.14474399 0.081871003 -0.185341
0.213494 -0.021253901 -0.214439
0.213494 0.0131211 -0.18970001
0.17911901 0.047495998 -0.190201
0.041619498 0.116246 -0.200909
0.075994499 0.116246 -0.189813
-0.26775599 -0.36388499 -0.148266
-0.29186499 -0.33062899 -0.148266
-0.130256 -0.47927099 -0.148266
-0.15643001 -0.46812901 -0.148266
-0.095880501 -0.487508 -0.148266
-0.0615055 -0.49085599 -0.148266
-0.027130499 -0.49111801 -0.148266
0.0072444701 -0.48812401 -0.148266
-0.19900601 -0.440694 -0.148266
-0.206588 -0.433754 -0.148266
-0.233381 -0.403914 -0.148266
-0.237128 -0.39937899 -0.148266
-0.16463099 -0.463846 -0.148266
-0.26688299 -0.365004 -0.148266
-0.302131 -0.31451601 -0.148266
-0.31248701 -0.29625401 -0.148266
-0.33252099 -0.261879 -0.148266
-0.33650601 -0.25400099 -0.148266
-0.34707299 -0.227504 -0.148266
-0.35575101 -0.193129 -0.148266
-0.36025599 -0.15875401 -0.148266
-0.36332199 -0.124379 -0.148266
-0.36412799 -0.090003997 -0.148266
-0.36129901 -0.055629 -0.148266
0.041619498 -0.481287 -0.148266
0.075994499 -0.47011 -0.148266
0.081012398 -0.46812901 -0.148266
0.110369 -0.45552999 -0.148266
0.14474399 -0.43401301 -0.148266
0.145082 -0.433754 -0.148266
0.178583 -0.39937899 -0.148266
0.17911901 -0.39876899 -0.148266
0.20778701 -0.365004 -0.148266
0.213494 -0.357512 -0.148266
0.233612 -0.33062899 -0.148266
0.247869 -0.30625501 -0.148266
0.25276399 -0.29625401 -0.148266
0.26883301 -0.261879 -0.148266
0.27965701 -0.227504 -0.148266
0.28224501 -0.21522699 -0.148266
0.286134 -0.193129 -0.148266
0.290382 -0.15875401 -0.148266
0.292 -0.124379 -0.148266
0.29057601 -0.090003997 -0.148266
0.28583199 -0.055629 -0.148266
-0.35350901 -0.021253901 -0.148266
-0.34099501 0.0131211 -0.148266
-0.33650601 0.0237896 -0.148266
-0.32468301 0.047495998 -0.148266
-0.30359501 0.081871003 -0.148266
-0.302131 0.084096298 -0.148266
-0.27487099 0.116246 -0.148266
-0.26775599 0.122461 -0.148266
-0.233381 0.147212 -0.148266
-0.227744 0.150621 -0.148266
-0.19900601 0.166298 -0.148266
-0.16463099 0.181468 -0.148266
-0.15463901 0.18499599 -0.148266
-0.130256 0.192114 -0.148266
-0.095880501 0.198172 -0.148266
-0.0615055 0.196742 -0.148266
0.0072444701 0.177349 -0.148266
-0.024442 0.18499599 -0.148266
-0.027130499 0.18613701 -0.148266
0.28224501 -0.037697401 -0.148266
0.27813399 -0.021253901 -0.148266
0.264211 0.0131211 -0.148266
0.213494 0.080913402 -0.148266
0.21257401 0.081871003 -0.148266
0.247869 0.040174 -0.148266
0.242539 0.047495998 -0.148266
0.14474399 0.13845199 -0.148266
0.124209 0.150621 -0.148266
0.041619498 0.176944 -0.148266
0.075994499 0.17184301 -0.148266
0.110369 0.157426 -0.148266
0.17911901 0.113035 -0.148266
0.175173 0.116246 -0.148266
-0.26775599 -0.33062899 -0.170513
-0.130256 -0.46812901 -0.15858801
-0.095880501 -0.46812901 -0.16583399
-0.0615055 -0.46812901 -0.168882
-0.027130499 -0.46812901 -0.16891401
0.0072444701 -0.46812901 -0.166134
-0.19900601 -0.433754 -0.153807
-0.233381 -0.39937899 -0.151151
-0.19900601 -0.39937899 -0.182634
-0.16463099 -0.433754 -0.176595
-0.233381 -0.365004 -0.176967
-0.302131 -0.29625401 -0.157782
-0.302131 -0.261879 -0.18210199
-0.33650601 -0.227504 -0.15724
-0.33650601 -0.193129 -0.166575
-0.33650601 -0.15875401 -0.17249
-0.33650601 -0.124379 -0.176659
-0.33650601 -0.090003997 -0.17731
-0.33650601 -0.055629 -0.17268901
0.041619498 -0.46812901 -0.16012999
0.075994499 -0.46812901 -0.15011699
0.110369 -0.433754 -0.169466
0.14474399 -0.433754 -0.148495
0.14474399 -0.39937899 -0.180847
0.17911901 -0.365004 -0.182607
0.213494 -0.33062899 -0.17734
0.247869 -0.29625401 -0.157368
0.28224501 -0.193129 -0.155423
0.28224501 -0.15875401 -0.161743
0.28224501 -0.124379 -0.162468
0.28224501 -0.090003997 -0.15884501
0.28224501 -0.055629 -0.152246
-0.33650601 -0.021253901 -0.162939
-0.33650601 0.0131211 -0.151555
-0.302131 0.0131211 -0.17884099
-0.302131 0.047495998 -0.163091
-0.302131 0.081871003 -0.149056
-0.26775599 0.081871003 -0.16896801
-0.26775599 0.116246 -0.151094
-0.233381 0.116246 -0.16614801
-0.19900601 0.116246 -0.180599
-0.19900601 0.150621 -0.15754899
-0.16463099 0.150621 -0.169027
-0.130256 0.150621 -0.177774
-0.130256 0.18499599 -0.15282001
-0.027130499 0.150621 -0.18145899
0.0072444701 0.150621 -0.175953
-0.095880501 0.18499599 -0.157006
-0.0615055 0.18499599 -0.15642101
-0.027130499 0.18499599 -0.14911599
0.247869 -0.021253901 -0.178435
0.247869 0.0131211 -0.161356
0.213494 0.047495998 -0.16823
0.17911901 0.081871003 -0.167795
0.041619498 0.150621 -0.171083
0.075994499 0.150621 -0.163675
0.110369 0.116246 -0.17763899
0.14474399 0.116246 -0.162458
0.110369 0.150621 -0.152723
-0.26775599 -0.40536901 -0.113891
-0.27326399 -0.39937899 -0.113891
-0.302131 -0.366633 -0.113891
-0.30348501 -0.365004 -0.113891
-0.332463 -0.33062899 -0.113891
-0.130256 -0.51054698 -0.113891
-0.14773899 -0.50250399 -0.113891
-0.16463099 -0.49172699 -0.113891
-0.19693001 -0.46812901 -0.113891
-0.095880501 -0.52051198 -0.113891
-0.0615055 -0.52484298 -0.113891
-0.027130499 -0.52658999 -0.113891
0.0072444701 -0.52433902 -0.113891
-0.233381 -0.43877801 -0.113891
-0.23895299 -0.433754 -0.113891
-0.19900601 -0.46662199 -0.113891
-0.405256 -0.27930301 -0.113891
-0.43043599 -0.261879 -0.113891
-0.43963099 -0.24997599 -0.113891
-0.446316 -0.227504 -0.113891
-0.44139799 -0.193129 -0.113891
-0.37088099 -0.29721099 -0.113891
-0.372693 -0.29625401 -0.113891
-0.33650601 -0.32609701 -0.113891
-0.43963099 -0.189218 -0.113891
-0.42205301 -0.15875401 -0.113891
-0.40845001 -0.124379 -0.113891
-0.405256 -0.106556 -0.113891
-0.403117 -0.090003997 -0.113891
-0.39933601 -0.055629 -0.113891
0.041619498 -0.51721901 -0.113891
0.075994499 -0.50487 -0.113891
0.081382103 -0.50250399 -0.113891
0.110369 -0.487701 -0.113891
0.141366 -0.46812901 -0.113891
0.14474399 -0.46580899 -0.113891
0.17911901 -0.43645599 -0.113891
0.181565 -0.433754 -0.113891
0.21148799 -0.39937899 -0.113891
0.213494 -0.39686599 -0.113891
0.238848 -0.365004 -0.113891
0.247869 -0.35169199 -0.113891
0.25991601 -0.33062899 -0.113891
0.277677 -0.29625401 -0.113891
0.28224501 -0.285045 -0.113891
0.29065099 -0.261879 -0.113891
0.30214199 -0.227504 -0.113891
0.31077099 -0.193129 -0.113891
0.31642401 -0.15875401 -0.113891
0.31661901 -0.15728199 -0.113891
0.320301 -0.124379 -0.113891
0.321863 -0.090003997 -0.113891
0.32017699 -0.055629 -0.113891
-0.394467 -0.021253901 -0.113891
-0.38625699 0.0131211 -0.113891
-0.375429 0.047495998 -0.113891
-0.37088099 0.060983401 -0.113891
-0.362959 0.081871003 -0.113891
-0.34567899 0.116246 -0.113891
-0.33650601 0.13074499 -0.113891
-0.320824 0.150621 -0.113891
-0.302131 0.168466 -0.113891
-0.278736 0.18499599 -0.113891
-0.26775599 0.19117001 -0.113891
-0.233381 0.20877799 -0.113891
-0.209914 0.21937101 -0.113891
-0.19900601 0.223672 -0.113891
-0.16463099 0.236019 -0.113891
-0.130256 0.245768 -0.113891
-0.095880501 0.250294 -0.113891
-0.0615055 0.24899299 -0.113891
-0.027130499 0.24340899 -0.113891
0.0072444701 0.23605201 -0.113891
0.28224501 0.064110197 -0.113891
0.27004099 0.081871003 -0.113891
0.110369 0.206875 -0.113891
0.078433298 0.21937101 -0.113891
0.14474399 0.18991999 -0.113891
0.213494 0.14251401 -0.113891
0.20381901 0.150621 -0.113891
0.247869 0.108655 -0.113891
0.24083801 0.116246 -0.113891
0.17911901 0.169043 -0.113891
0.15371899 0.18499599 -0.113891
0.31661901 -0.025843199 -0.113891
0.315925 -0.021253901 -0.113891
0.307515 0.0131211 -0.113891
0.29200101 0.047495998 -0.113891
0.041619498 0.229213 -0.113891
0.075994499 0.22021499 -0.113891
-0.26775599 -0.39937899 -0.12115
-0.302131 -0.365004 -0.115601
-0.26775599 -0.365004 -0.14760099
-0.302131 -0.33062899 -0.14021599
-0.130256 -0.50250399 -0.124223
-0.16463099 -0.46812901 -0.14363401
-0.095880501 -0.50250399 -0.13371401
-0.0615055 -0.50250399 -0.137284
-0.027130499 -0.50250399 -0.137894
0.0072444701 -0.50250399 -0.13536499
-0.233381 -0.433754 -0.121971
-0.405256 -0.261879 -0.124575
-0.43963099 -0.227504 -0.119199
-0.405256 -0.227504 -0.130233
-0.43963099 -0.193129 -0.114845
-0.405256 -0.193129 -0.12613501
-0.37088099 -0.29625401 -0.114636
-0.33650601 -0.29625401 -0.13185801
-0.37088099 -0.261879 -0.130477
-0.33650601 -0.261879 -0.14547201
-0.37088099 -0.227504 -0.13680799
-0.37088099 -0.193129 -0.13902301
-0.405256 -0.15875401 -0.120003
-0.405256 -0.124379 -0.115606
-0.37088099 -0.15875401 -0.140012
-0.37088099 -0.124379 -0.141331
-0.37088099 -0.090003997 -0.14159501
-0.37088099 -0.055629 -0.139213
0.041619498 -0.50250399 -0.128968
0.075994499 -0.50250399 -0.116657
0.110369 -0.46812901 -0.135583
0.17911901 -0.433754 -0.116476
0.17911901 -0.39937899 -0.14771999
0.213494 -0.365004 -0.141459
0.247869 -0.33062899 -0.128491
0.28224501 -0.261879 -0.125495
0.28224501 -0.227504 -0.14324699
0.31661901 -0.124379 -0.118283
0.31661901 -0.090003997 -0.119477
0.31661901 -0.055629 -0.117262
-0.37088099 -0.021253901 -0.13362899
-0.37088099 0.0131211 -0.125285
-0.37088099 0.047495998 -0.116816
-0.33650601 0.047495998 -0.140782
-0.33650601 0.081871003 -0.128978
-0.33650601 0.116246 -0.118074
-0.302131 0.116246 -0.135895
-0.302131 0.150621 -0.120942
-0.26775599 0.150621 -0.13467
-0.26775599 0.18499599 -0.116762
-0.233381 0.150621 -0.14652801
-0.233381 0.18499599 -0.12669601
-0.19900601 0.18499599 -0.137284
-0.19900601 0.21937101 -0.116178
-0.16463099 0.18499599 -0.14612199
-0.16463099 0.21937101 -0.123509
-0.130256 0.21937101 -0.130483
-0.095880501 0.21937101 -0.13456599
-0.0615055 0.21937101 -0.133582
0.0072444701 0.18499599 -0.142299
-0.027130499 0.21937101 -0.127434
0.0072444701 0.21937101 -0.121974
0.28224501 -0.021253901 -0.14441299
0.28224501 0.0131211 -0.133902
0.213494 0.081871003 -0.147763
0.247869 0.047495998 -0.14480799
0.28224501 0.047495998 -0.120243
0.247869 0.081871003 -0.126794
0.14474399 0.150621 -0.140691
0.041619498 0.18499599 -0.14240099
0.075994499 0.18499599 -0.13917901
0.041619498 0.21937101 -0.119452
0.075994499 0.21937101 -0.114437
0.110369 0.18499599 -0.12890799
0.14474399 0.18499599 -0.116958
0.17911901 0.116246 -0.146456
0.213494 0.116246 -0.128181
0.17911901 0.150621 -0.124751
-0.26775599 -0.41682601 -0.0795165
-0.28592801 -0.39937899 -0.0795165
-0.33650601 -0.343389 -0.0795165
-0.34820601 -0.33062899 -0.0795165
-0.302131 -0.38211599 -0.0795165
-0.31711 -0.365004 -0.0795165
-0.19900601 -0.47206199 -0.0795165
-0.204138 -0.46812901 -0.0795165
-0.130256 -0.52079201 -0.0795165
-0.160235 -0.50250399 -0.0795165
-0.16463099 -0.49939701 -0.0795165
-0.0615055 -0.54208702 -0.0795165
-0.087003902 -0.536879 -0.0795165
-0.027130499 -0.54594898 -0.0795165
0.0072444701 -0.54435903 -0.0795165
-0.095880501 -0.53469402 -0.0795165
-0.233381 -0.44506001 -0.0795165
-0.247877 -0.433754 -0.0795165
-0.405256 -0.28951201 -0.0795165
-0.437525 -0.261879 -0.0795165
-0.43963099 -0.25933301 -0.0795165
-0.45460001 -0.227504 -0.0795165
-0.46068901 -0.193129 -0.0795165
-0.37088099 -0.311883 -0.0795165
-0.39417601 -0.29625401 -0.0795165
-0.46542901 -0.15875401 -0.0795165
-0.46479601 -0.124379 -0.0795165
-0.45097899 -0.090003997 -0.0795165
-0.43963099 -0.062241599 -0.0795165
-0.43784499 -0.055629 -0.0795165
0.041619498 -0.53768402 -0.0795165
0.0448143 -0.536879 -0.0795165
0.075994499 -0.52633798 -0.0795165
0.110369 -0.508044 -0.0795165
0.120111 -0.50250399 -0.0795165
0.14474399 -0.48612499 -0.0795165
0.16680001 -0.46812901 -0.0795165
0.17911901 -0.45767301 -0.0795165
0.205955 -0.433754 -0.0795165
0.213494 -0.426063 -0.0795165
0.23901699 -0.39937899 -0.0795165
0.247869 -0.38909501 -0.0795165
0.266496 -0.365004 -0.0795165
0.28224501 -0.34067801 -0.0795165
0.287864 -0.33062899 -0.0795165
0.30758399 -0.29625401 -0.0795165
0.31661901 -0.27687401 -0.0795165
0.322027 -0.261879 -0.0795165
0.33225799 -0.227504 -0.0795165
0.33939299 -0.193129 -0.0795165
0.34489101 -0.15875401 -0.0795165
0.35003799 -0.124379 -0.0795165
0.35099399 -0.117882 -0.0795165
0.35461599 -0.090003997 -0.0795165
0.35746101 -0.055629 -0.0795165
-0.432111 -0.021253901 -0.0795165
-0.42792499 0.0131211 -0.0795165
-0.42200199 0.047495998 -0.0795165
-0.41500399 0.081871003 -0.0795165
-0.40688199 0.116246 -0.0795165
-0.405256 0.122096 -0.0795165
-0.39453399 0.150621 -0.0795165
-0.37445199 0.18499599 -0.0795165
-0.37088099 0.190042 -0.0795165
-0.34364 0.21937101 -0.0795165
-0.33650601 0.224884 -0.0795165
-0.302131 0.243954 -0.0795165
-0.276768 0.253746 -0.0795165
-0.26775599 0.25711599 -0.0795165
-0.233381 0.270881 -0.0795165
-0.19900601 0.28415099 -0.0795165
-0.18655001 0.28812101 -0.0795165
-0.16463099 0.29377201 -0.0795165
-0.130256 0.299723 -0.0795165
0.0072444701 0.28769401 -0.0795165
0.00500149 0.28812101 -0.0795165
-0.095880501 0.30131999 -0.0795165
-0.0615055 0.298935 -0.0795165
-0.027130499 0.293966 -0.0795165
0.28224501 0.14259399 -0.0795165
0.27458999 0.150621 -0.0795165
0.213494 0.204008 -0.0795165
0.190433 0.21937101 -0.0795165
0.247869 0.17610601 -0.0795165
0.237666 0.18499599 -0.0795165
0.35673699 -0.021253901 -0.0795165
0.35148501 0.0131211 -0.0795165
0.35099399 0.0153044 -0.0795165
0.34144801 0.047495998 -0.0795165
0.32561499 0.081871003 -0.0795165
0.31661901 0.097727098 -0.0795165
0.30421701 0.116246 -0.0795165
0.041619498 0.280339 -0.0795165
0.075994499 0.270365 -0.0795165
0.14474399 0.243962 -0.0795165
0.121226 0.253746 -0.0795165
0.110369 0.25786 -0.0795165
0.17911901 0.225982 -0.0795165
-0.33650601 -0.33062899 -0.109619
-0.19900601 -0.46812901 -0.109966
-0.0615055 -0.536879 -0.0952821
-0.027130499 -0.536879 -0.100222
0.0072444701 -0.536879 -0.097088702
-0.43963099 -0.15875401 -0.106441
-0.43963099 -0.124379 -0.097872697
-0.43963099 -0.090003997 -0.088271603
-0.405256 -0.090003997 -0.112399
-0.405256 -0.055629 -0.109173
0.041619498 -0.536879 -0.082150899
0.110369 -0.50250399 -0.092593297
0.14474399 -0.46812901 -0.110728
0.213494 -0.39937899 -0.111748
0.247869 -0.365004 -0.104367
0.28224501 -0.33062899 -0.087671503
0.28224501 -0.29625401 -0.108339
0.31661901 -0.261879 -0.085144497
0.31661901 -0.227504 -0.0961207
0.31661901 -0.193129 -0.106068
0.31661901 -0.15875401 -0.113635
0.35099399 -0.090003997 -0.083528601
0.35099399 -0.055629 -0.085386999
-0.405256 -0.021253901 -0.105154
-0.405256 0.0131211 -0.099376999
-0.405256 0.047495998 -0.092426501
-0.405256 0.081871003 -0.086155199
-0.37088099 0.081871003 -0.109457
-0.405256 0.116246 -0.080484897
-0.37088099 0.116246 -0.101154
-0.37088099 0.150621 -0.091028102
-0.33650601 0.150621 -0.107694
-0.37088099 0.18499599 -0.080911502
-0.33650601 0.18499599 -0.094508402
-0.33650601 0.21937101 -0.081458397
-0.302131 0.18499599 -0.107146
-0.302131 0.21937101 -0.090633698
-0.26775599 0.21937101 -0.099667497
-0.233381 0.21937101 -0.108501
-0.26775599 0.253746 -0.081163302
-0.233381 0.253746 -0.088539101
-0.19900601 0.253746 -0.096881703
-0.16463099 0.253746 -0.104018
-0.130256 0.253746 -0.109253
-0.16463099 0.28812101 -0.082741797
-0.130256 0.28812101 -0.086612098
-0.095880501 0.253746 -0.111757
-0.0615055 0.253746 -0.110904
-0.095880501 0.28812101 -0.088121101
-0.0615055 0.28812101 -0.0867403
-0.027130499 0.253746 -0.107607
0.0072444701 0.253746 -0.103271
-0.027130499 0.28812101 -0.083419897
0.28224501 0.081871003 -0.107031
0.110369 0.21937101 -0.105802
0.14474399 0.21937101 -0.094716899
0.213494 0.150621 -0.109704
0.247869 0.116246 -0.110435
0.28224501 0.116246 -0.091195397
0.247869 0.150621 -0.092230402
0.17911901 0.18499599 -0.104559
0.213494 0.18499599 -0.089500397
0.17911901 0.21937101 -0.083057798
0.31661901 -0.021253901 -0.113305
0.35099399 -0.021253901 -0.084056199
0.31661901 0.0131211 -0.106976
0.35099399 0.0131211 -0.079870202
0.31661901 0.047495998 -0.096929699
0.31661901 0.081871003 -0.084952503
0.041619498 0.253746 -0.0979397
0.075994499 0.253746 -0.090494297
0.110369 0.253746 -0.082069203
-0.26775599 -0.41225699 -0.045141499
-0.282637 -0.39937899 -0.045141499
-0.33650601 -0.338177 -0.045141499
-0.34225401 -0.33062899 -0.045141499
-0.302131 -0.379554 -0.045141499
-0.31447399 -0.365004 -0.045141499
-0.130256 -0.50634003 -0.045141499
-0.137844 -0.50250399 -0.045141499
-0.16463099 -0.48565501 -0.045141499
-0.189823 -0.46812901 -0.045141499
-0.027130499 -0.53883398 -0.045141499
-0.045494702 -0.536879 -0.045141499
0.0072444701 -0.537669 -0.045141499
-0.095880501 -0.52293098 -0.045141499
-0.0615055 -0.53384101 -0.045141499
-0.233381 -0.43724799 -0.045141499
-0.238859 -0.433754 -0.045141499
-0.19900601 -0.46195099 -0.045141499
-0.405256 -0.26270801 -0.045141499
-0.40597299 -0.261879 -0.045141499
-0.42571199 -0.227504 -0.045141499
-0.43963099 -0.19451401 -0.045141499
-0.440359 -0.193129 -0.045141499
-0.37088099 -0.29847699 -0.045141499
-0.37304899 -0.29625401 -0.045141499
-0.46133801 -0.15875401 -0.045141499
-0.47332901 -0.124379 -0.045141499
-0.46802399 -0.090003997 -0.045141499
-0.45273301 -0.055629 -0.045141499
0.0129163 -0.536879 -0.045141499
0.041619498 -0.53101999 -0.045141499
0.075994499 -0.51895303 -0.045141499
0.110369 -0.50320899 -0.045141499
0.111906 -0.50250399 -0.045141499
0.14474399 -0.48415899 -0.045141499
0.16877501 -0.46812901 -0.045141499
0.17911901 -0.46125701 -0.045141499
0.21338101 -0.433754 -0.045141499
0.213494 -0.433662 -0.045141499
0.247869 -0.40113699 -0.045141499
0.249488 -0.39937899 -0.045141499
0.278943 -0.365004 -0.045141499
0.28224501 -0.36027601 -0.045141499
0.303114 -0.33062899 -0.045141499
0.31661901 -0.31173101 -0.045141499
0.32797199 -0.29625401 -0.045141499
0.35099399 -0.266316 -0.045141499
0.353834 -0.261879 -0.045141499
0.37122899 -0.227504 -0.045141499
0.377222 -0.193129 -0.045141499
0.376587 -0.15875401 -0.045141499
0.37851101 -0.124379 -0.045141499
0.384588 -0.090003997 -0.045141499
0.385369 -0.086332597 -0.045141499
0.391693 -0.055629 -0.045141499
-0.44911501 -0.021253901 -0.045141499
-0.45278499 0.0131211 -0.045141499
-0.45468101 0.047495998 -0.045141499
-0.45426601 0.081871003 -0.045141499
-0.45252201 0.116246 -0.045141499
-0.44850799 0.150621 -0.045141499
-0.44010699 0.18499599 -0.045141499
-0.43963099 0.18648399 -0.045141499
-0.42670199 0.21937101 -0.045141499
-0.405256 0.253021 -0.045141499
-0.40465799 0.253746 -0.045141499
-0.37088099 0.28366801 -0.045141499
-0.363518 0.28812101 -0.045141499
-0.33650601 0.301635 -0.045141499
-0.302131 0.31380701 -0.045141499
-0.26984 0.322496 -0.045141499
-0.26775599 0.323024 -0.045141499
-0.233381 0.331826 -0.045141499
-0.19900601 0.339748 -0.045141499
-0.16463099 0.34560099 -0.045141499
-0.130256 0.34852299 -0.045141499
-0.095880501 0.34805 -0.045141499
-0.0615055 0.344596 -0.045141499
-0.027130499 0.33934301 -0.045141499
0.0072444701 0.333202 -0.045141499
0.28224501 0.21552899 -0.045141499
0.278209 0.21937101 -0.045141499
0.39664799 -0.021253901 -0.045141499
0.39601699 0.0131211 -0.045141499
0.38903201 0.047495998 -0.045141499
0.385369 0.059632499 -0.045141499
0.377074 0.081871003 -0.045141499
0.35099399 0.132348 -0.045141499
0.33930501 0.150621 -0.045141499
0.36000299 0.116246 -0.045141499
0.31661901 0.179774 -0.045141499
0.312087 0.18499599 -0.045141499
0.075994499 0.318643 -0.045141499
0.060349301 0.322496 -0.045141499
0.041619498 0.32647699 -0.045141499
0.110369 0.30803999 -0.045141499
0.14474399 0.296094 -0.045141499
0.17911901 0.283584 -0.045141499
0.16736899 0.28812101 -0.045141499
0.213494 0.26711699 -0.045141499
0.247869 0.245121 -0.045141499
0.23559 0.253746 -0.045141499
-0.19900601 -0.46812901 -0.058139
-0.0615055 -0.536879 -0.050839201
-0.43963099 -0.227504 -0.055850901
-0.43963099 -0.055629 -0.077438198
0.041619498 -0.536879 -0.0588734
0.247869 -0.39937899 -0.055825699
0.31661901 -0.29625401 -0.067799501
0.35099399 -0.261879 -0.0488538
0.35099399 -0.227504 -0.062353801
0.35099399 -0.193129 -0.067395203
0.35099399 -0.15875401 -0.072060697
0.35099399 -0.124379 -0.078292497
0.385369 -0.055629 -0.052144401
-0.43963099 -0.021253901 -0.069394298
-0.43963099 0.0131211 -0.066532202
-0.43963099 0.047495998 -0.0633258
-0.43963099 0.081871003 -0.0598124
-0.43963099 0.116246 -0.0561895
-0.43963099 0.150621 -0.051782001
-0.405256 0.150621 -0.074045897
-0.43963099 0.18499599 -0.045471299
-0.405256 0.18499599 -0.065498203
-0.405256 0.21937101 -0.0553222
-0.37088099 0.21937101 -0.070477597
-0.37088099 0.253746 -0.056985602
-0.33650601 0.253746 -0.067470402
-0.33650601 0.28812101 -0.0508864
-0.302131 0.253746 -0.075029902
-0.302131 0.28812101 -0.0571055
-0.26775599 0.28812101 -0.063109897
-0.26775599 0.322496 -0.0453909
-0.233381 0.28812101 -0.070302904
-0.19900601 0.28812101 -0.077357002
-0.233381 0.322496 -0.0500944
-0.19900601 0.322496 -0.055615801
-0.16463099 0.322496 -0.060842
-0.130256 0.322496 -0.064234897
0.0072444701 0.28812101 -0.079230502
-0.095880501 0.322496 -0.064613499
-0.0615055 0.322496 -0.062248699
-0.027130499 0.322496 -0.058162499
0.0072444701 0.322496 -0.0532501
0.28224501 0.150621 -0.076043099
0.213494 0.21937101 -0.071760602
0.247869 0.18499599 -0.075349197
0.28224501 0.18499599 -0.059018899
0.247869 0.21937101 -0.0574903
0.385369 -0.021253901 -0.0553005
0.385369 0.0131211 -0.053290799
0.35099399 0.047495998 -0.073049299
0.35099399 0.081871003 -0.062781297
0.385369 0.047495998 -0.047696799
0.31661901 0.116246 -0.072689302
0.35099399 0.116246 -0.050547
0.31661901 0.150621 -0.0573586
0.041619498 0.28812101 -0.074275702
0.075994499 0.28812101 -0.0674771
0.14474399 0.253746 -0.073688798
0.110369 0.28812101 -0.058738802
0.14474399 0.28812101 -0.0502312
0.041619498 0.322496 -0.048095401
0.17911901 0.253746 -0.0634664
0.213494 0.253746 -0.052173801
-0.26775599 -0.40127 -0.0107665
-0.270336 -0.39937899 -0.0107665
-0.302131 -0.36907899 -0.0107665
-0.30545199 -0.365004 -0.0107665
-0.331415 -0.33062899 -0.0107665
-0.130256 -0.47716799 -0.0107665
-0.145079 -0.46812901 -0.0107665
-0.0615055 -0.50897098 -0.0107665
-0.081270203 -0.50250399 -0.0107665
-0.095880501 -0.49672401 -0.0107665
-0.027130499 -0.51564097 -0.0107665
0.0072444701 -0.51217198 -0.0107665
-0.19900601 -0.437242 -0.0107665
-0.20735 -0.433754 -0.0107665
-0.233381 -0.422364 -0.0107665
-0.16463099 -0.45648801 -0.0107665
-0.33650601 -0.322312 -0.0107665
-0.35183099 -0.29625401 -0.0107665
-0.370727 -0.261879 -0.0107665
-0.37088099 -0.26153001 -0.0107665
-0.38554999 -0.227504 -0.0107665
-0.40345699 -0.193129 -0.0107665
-0.405256 -0.19025899 -0.0107665
-0.43176001 -0.15875401 -0.0107665
-0.43963099 -0.15012001 -0.0107665
-0.456536 -0.124379 -0.0107665
-0.458675 -0.090003997 -0.0107665
-0.448975 -0.055629 -0.0107665
0.041619498 -0.50342399 -0.0107665
0.0450252 -0.50250399 -0.0107665
0.075994499 -0.49318999 -0.0107665
0.110369 -0.48020601 -0.0107665
0.14281 -0.46812901 -0.0107665
0.14474399 -0.46741101 -0.0107665
0.17911901 -0.45170301 -0.0107665
0.208184 -0.433754 -0.0107665
0.213494 -0.430278 -0.0107665
0.247869 -0.40153199 -0.0107665
0.250076 -0.39937899 -0.0107665
0.280835 -0.365004 -0.0107665
0.28224501 -0.36306801 -0.0107665
0.30623201 -0.33062899 -0.0107665
0.31661901 -0.316486 -0.0107665
0.33321199 -0.29625401 -0.0107665
0.35099399 -0.27744201 -0.0107665
0.36619899 -0.261879 -0.0107665
0.385369 -0.24536701 -0.0107665
0.40763101 -0.227504 -0.0107665
0.41974401 -0.21779899 -0.0107665
0.435359 -0.193129 -0.0107665
0.41974401 -0.14928301 -0.0107665
0.410797 -0.124379 -0.0107665
0.41194901 -0.090003997 -0.0107665
0.41974401 -0.055672199 -0.0107665
0.426503 -0.15875401 -0.0107665
0.41975501 -0.055629 -0.0107665
-0.452382 -0.021253901 -0.0107665
-0.46411499 0.0131211 -0.0107665
-0.47085401 0.047495998 -0.0107665
-0.47273901 0.081871003 -0.0107665
-0.47319099 0.116246 -0.0107665
-0.472783 0.150621 -0.0107665
-0.469466 0.18499599 -0.0107665
-0.46288699 0.21937101 -0.0107665
-0.45207801 0.253746 -0.0107665
-0.43963099 0.27988899 -0.0107665
-0.43443999 0.28812101 -0.0107665
-0.405256 0.31939501 -0.0107665
-0.40156001 0.322496 -0.0107665
-0.37088099 0.34429601 -0.0107665
-0.345258 0.35687101 -0.0107665
-0.33650601 0.36019501 -0.0107665
-0.302131 0.371225 -0.0107665
-0.26775599 0.37880501 -0.0107665
-0.233381 0.38431001 -0.0107665
-0.19900601 0.38782299 -0.0107665
-0.16463099 0.389696 -0.0107665
-0.130256 0.38985801 -0.0107665
-0.095880501 0.388174 -0.0107665
-0.0615055 0.38495901 -0.0107665
-0.027130499 0.38016501 -0.0107665
0.0072444701 0.37421101 -0.0107665
0.42771 -0.021253901 -0.0107665
0.43256301 0.0131211 -0.0107665
0.43058699 0.047495998 -0.0107665
0.422921 0.081871003 -0.0107665
0.41974401 0.092725202 -0.0107665
0.41145799 0.116246 -0.0107665
0.39599001 0.150621 -0.0107665
0.385369 0.171424 -0.0107665
0.377763 0.18499599 -0.0107665
0.35376099 0.21937101 -0.0107665
0.110369 0.35303801 -0.0107665
0.094098397 0.35687101 -0.0107665
0.14474399 0.34325501 -0.0107665
0.28224501 0.28390101 -0.0107665
0.27601099 0.28812101 -0.0107665
0.213494 0.32038599 -0.0107665
0.20760199 0.322496 -0.0107665
0.17911901 0.33206701 -0.0107665
0.247869 0.30486101 -0.0107665
0.041619498 0.36756599 -0.0107665
0.075994499 0.36070201 -0.0107665
0.35099399 0.222716 -0.0107665
0.320034 0.253746 -0.0107665
0.31661901 0.25673601 -0.0107665
-0.33650601 -0.33062899 -0.026830001
-0.130256 -0.50250399 -0.039788499
-0.16463099 -0.46812901 -0.023419401
-0.027130499 -0.536879 -0.041334901
0.0072444701 -0.536879 -0.043596901
-0.095880501 -0.50250399 -0.0178743
-0.233381 -0.433754 -0.035847899
-0.405256 -0.261879 -0.044661
-0.405256 -0.227504 -0.031103
-0.43963099 -0.193129 -0.0445746
-0.405256 -0.193129 -0.0132626
-0.37088099 -0.29625401 -0.0422667
-0.37088099 -0.261879 -0.011009
-0.43963099 -0.15875401 -0.019713299
0.075994499 -0.50250399 -0.0201324
0.110369 -0.50250399 -0.043322898
0.14474399 -0.46812901 -0.0118925
0.385369 -0.227504 -0.0352978
0.385369 -0.193129 -0.0404297
0.41974401 -0.193129 -0.021718301
0.385369 -0.15875401 -0.037880901
0.41974401 -0.15875401 -0.0148321
0.385369 -0.124379 -0.0370179
0.385369 -0.090003997 -0.044123001
0.41974401 -0.055629 -0.0107823
-0.43963099 0.21937101 -0.036642201
-0.43963099 0.253746 -0.0243803
-0.405256 0.253746 -0.044917502
-0.405256 0.28812101 -0.0310013
-0.37088099 0.28812101 -0.043381199
-0.37088099 0.322496 -0.0260904
-0.33650601 0.322496 -0.035618201
-0.33650601 0.35687101 -0.0136201
-0.302131 0.322496 -0.041200601
-0.302131 0.35687101 -0.0211225
-0.26775599 0.35687101 -0.025862601
-0.233381 0.35687101 -0.0301803
-0.19900601 0.35687101 -0.0341415
-0.16463099 0.35687101 -0.037232298
-0.130256 0.35687101 -0.038787302
-0.095880501 0.35687101 -0.038145199
-0.0615055 0.35687101 -0.035246398
-0.027130499 0.35687101 -0.0307844
0.0072444701 0.35687101 -0.025612701
0.28224501 0.21937101 -0.043554399
0.41974401 -0.021253901 -0.021028399
0.41974401 0.0131211 -0.0242971
0.41974401 0.047495998 -0.020467199
0.385369 0.081871003 -0.039607801
0.41974401 0.081871003 -0.0132213
0.35099399 0.150621 -0.0387192
0.385369 0.116246 -0.0285425
0.385369 0.150621 -0.016980501
0.31661901 0.18499599 -0.043097202
0.35099399 0.18499599 -0.0249216
0.31661901 0.21937101 -0.0279424
0.35099399 0.21937101 -0.0119611
0.075994499 0.322496 -0.0423605
0.041619498 0.35687101 -0.019951601
0.075994499 0.35687101 -0.0140154
0.110369 0.322496 -0.034926601
0.14474399 0.322496 -0.0263517
0.17911901 0.28812101 -0.042379301
0.213494 0.28812101 -0.032644302
0.247869 0.253746 -0.041002501
0.28224501 0.253746 -0.026641499
0.247869 0.28812101 -0.020621801
0.17911901 0.322496 -0.017653299
0.31661901 0.253746 -0.0120892
-0.26775599 -0.38847601 0.0236085
-0.29386401 -0.365004 0.0236085
-0.302131 -0.354886 0.0236085
-0.318501 -0.33062899 0.0236085
-0.095880501 -0.472882 0.0236085
-0.104723 -0.46812901 0.0236085
-0.0615055 -0.48867899 0.0236085
-0.027130499 -0.49362701 0.0236085
0.0072444701 -0.486242 0.0236085
-0.233381 -0.40591201 0.0236085
-0.25003299 -0.39937899 0.0236085
-0.19900601 -0.41738501 0.0236085
-0.130256 -0.45259899 0.0236085
-0.159989 -0.433754 0.0236085
-0.16463099 -0.43138999 0.0236085
-0.33650601 -0.29884699 0.0236085
-0.33769599 -0.29625401 0.0236085
-0.354085 -0.261879 0.0236085
-0.36878201 -0.227504 0.0236085
-0.37088099 -0.221815 0.0236085
-0.38426399 -0.193129 0.0236085
-0.405256 -0.16111401 0.0236085
-0.40690699 -0.15875401 0.0236085
-0.42835301 -0.124379 0.0236085
-0.43493599 -0.090003997 0.0236085
-0.43580899 -0.055629 0.0236085
0.041619498 -0.47211 0.0236085
0.051584601 -0.46812901 0.0236085
0.075994499 -0.45965001 0.0236085
0.110369 -0.451345 0.0236085
0.14474399 -0.44561699 0.0236085
