# .PCD v0.7 - Point Cloud Data file format
VERSION 0.7
FIELDS x y z
SIZE 4 4 4
TYPE F F F
COUNT 1 1 1
WIDTH 1474
HEIGHT 1
VIEWPOINT 0 0 0 1 0 0 0
POINTS 1474
DATA ascii
0.38733199 0.206194 -0.23871
0.34373999 0.273388 -0.23871
0.34254599 0.274941 -0.23871
0.37811401 0.22357599 -0.23871
0.36776799 0.240568 -0.23871
0.274993 0.342473 -0.23871
0.273413 0.34368899 -0.23871
0.171872 0.40466401 -0.23871
0.151188 0.41243601 -0.23871
0.20624501 0.387252 -0.23871
0.240619 0.36773801 -0.23871
0.22363999 0.37806299 -0.23871
0.034376699 0.43842199 -0.23871
0.068750396 0.43411499 -0.23871
0.103124 0.42663401 -0.23871
0.13749801 0.416733 -0.23871
0.31158599 0.309315 -0.23871
0.309367 0.31153399 -0.23871
-0.30936101 -0.309412 -0.241786
-0.137492 -0.41253299 -0.246783
-0.103118 -0.41253299 -0.26328599
-0.206239 -0.37815899 -0.253876
-0.240613 -0.343786 -0.27173701
-0.41248199 -0.13754299 -0.24674
-0.343734 -0.240665 -0.27167699
-0.37810799 -0.20629101 -0.25386399
-0.41248199 -0.10317 -0.263237
0.103124 -0.41253299 -0.26325399
0.13749801 -0.41253299 -0.246784
0.20624501 -0.37815899 -0.253849
0.240619 -0.343786 -0.271707
0.309367 -0.309412 -0.241741
0.34373999 -0.240665 -0.271703
0.37811401 -0.20629101 -0.25376099
0.41248801 -0.13754299 -0.24662501
0.41248801 -0.10317 -0.26317701
-0.41248199 0.103073 -0.263271
-0.41248199 0.137446 -0.246788
-0.37810799 0.206194 -0.25379699
-0.343734 0.240568 -0.27166301
-0.30936101 0.309315 -0.24172699
-0.240613 0.34368899 -0.271633
-0.206239 0.37806299 -0.25373301
-0.137492 0.41243601 -0.246639
-0.103118 0.41243601 -0.26315299
0.41248801 0.103073 -0.26319101
0.41248801 0.137446 -0.24668799
0.37811401 0.206194 -0.25371799
0.34373999 0.240568 -0.27158701
0.103124 0.41243601 -0.26317099
0.13749801 0.41243601 -0.246639
0.240619 0.34368899 -0.27159801
0.20624501 0.37806299 -0.25370899
0.309367 0.309315 -0.241659
-0.27498701 -0.364602 -0.204336
-0.300612 -0.343786 -0.204336
-0.343734 -0.300567 -0.204336
-0.36448601 -0.275038 -0.204336
-0.30936101 -0.33602399 -0.204336
-0.33591801 -0.309412 -0.204336
-0.171866 -0.42243999 -0.204336
-0.195825 -0.41253299 -0.204336
-0.137492 -0.43578899 -0.204336
-0.068744503 -0.451056 -0.204336
-0.094139799 -0.44690701 -0.204336
-0.103118 -0.44512799 -0.204336
-0.034370702 -0.454824 -0.204336
2.9800001e-06 -0.45612901 -0.204336
-0.240613 -0.38746801 -0.204336
-0.25581199 -0.37815899 -0.204336
-0.206239 -0.40775201 -0.204336
-0.41248199 -0.195829 -0.204336
-0.42236599 -0.17191701 -0.204336
-0.43573299 -0.13754299 -0.204336
-0.37810799 -0.25579101 -0.204336
-0.38738799 -0.240665 -0.204336
-0.40769801 -0.20629101 -0.204336
-0.44506201 -0.10317 -0.204336
-0.44685501 -0.094080098 -0.204336
-0.45097601 -0.068795897 -0.204336
-0.45474401 -0.0344222 -0.204336
-0.45605001 -4.8459999e-05 -0.204336
0.034376699 -0.454822 -0.204336
0.068750396 -0.451049 -0.204336
0.094102003 -0.44690701 -0.204336
0.103124 -0.44511899 -0.204336
0.13749801 -0.43579501 -0.204336
0.171872 -0.42241299 -0.204336
0.195721 -0.41253299 -0.204336
0.20624501 -0.40770701 -0.204336
0.240619 -0.38742 -0.204336
0.25576499 -0.37815899 -0.204336
0.274993 -0.364548 -0.204336
0.30054599 -0.343786 -0.204336
0.309367 -0.335969 -0.204336
0.335899 -0.309412 -0.204336
0.34373999 -0.30054599 -0.204336
0.364438 -0.275038 -0.204336
0.37811401 -0.25569001 -0.204336
0.38735101 -0.240665 -0.204336
0.40766001 -0.20629101 -0.204336
0.41248801 -0.195724 -0.204336
0.422306 -0.17191701 -0.204336
0.435635 -0.13754299 -0.204336
0.44498599 -0.10317 -0.204336
0.446861 -0.093652099 -0.204336
0.450894 -0.068795897 -0.204336
0.454647 -0.0344222 -0.204336
0.45593601 -4.8459999e-05 -0.204336
-0.454752 0.034325201 -0.204336
-0.450975 0.068699002 -0.204336
-0.44685501 0.0938894 -0.204336
-0.44503599 0.103073 -0.204336
-0.43570101 0.137446 -0.204336
-0.422369 0.17182 -0.204336
-0.41248199 0.195729 -0.204336
-0.40765899 0.206194 -0.204336
-0.387321 0.240568 -0.204336
-0.37810799 0.255604 -0.204336
-0.36441699 0.274941 -0.204336
-0.343734 0.30040801 -0.204336
-0.335866 0.309315 -0.204336
-0.30936101 0.33583701 -0.204336
-0.30049399 0.34368899 -0.204336
-0.27498701 0.364418 -0.204336
-0.25567001 0.37806299 -0.204336
-0.240613 0.38727501 -0.204336
-0.206239 0.40759 -0.204336
-0.195608 0.41243601 -0.204336
-0.171866 0.42221701 -0.204336
-0.137492 0.43556401 -0.204336
-0.103118 0.44490799 -0.204336
-0.093414202 0.44681001 -0.204336
-0.068744503 0.45080701 -0.204336
-0.034370702 0.454568 -0.204336
2.9800001e-06 0.45587 -0.204336
0.45464399 0.034325201 -0.204336
0.45087701 0.068699002 -0.204336
0.446861 0.093403198 -0.204336
0.44495699 0.103073 -0.204336
0.43563601 0.137446 -0.204336
0.41248801 0.19559 -0.204336
0.40764299 0.206194 -0.204336
0.387306 0.240568 -0.204336
0.37811401 0.25557899 -0.204336
0.364427 0.274941 -0.204336
0.42230201 0.17182 -0.204336
0.20624501 0.40756899 -0.204336
0.195581 0.41243601 -0.204336
0.274993 0.36435899 -0.204336
0.25562701 0.37806299 -0.204336
0.240619 0.387252 -0.204336
0.034376699 0.45459101 -0.204336
0.068750396 0.45082599 -0.204336
0.103124 0.44490701 -0.204336
0.093465 0.44681001 -0.204336
0.13749801 0.43555099 -0.204336
0.171872 0.422207 -0.204336
0.34373999 0.300394 -0.204336
0.33582601 0.309315 -0.204336
0.309367 0.33575901 -0.204336
0.300428 0.34368899 -0.204336
-0.27498701 -0.343786 -0.237094
-0.343734 -0.275038 -0.236965
-0.171866 -0.41253299 -0.22472399
-0.068744503 -0.44690701 -0.214063
-0.034370702 -0.44690701 -0.22230799
2.9800001e-06 -0.44690701 -0.224967
-0.240613 -0.37815899 -0.22193401
-0.41248199 -0.17191701 -0.224641
-0.37810799 -0.240665 -0.221836
-0.44685501 -0.068795897 -0.21402
-0.44685501 -0.0344222 -0.222252
-0.44685501 -4.8459999e-05 -0.224925
0.034376699 -0.44690701 -0.222302
0.068750396 -0.44690701 -0.21406101
0.171872 -0.41253299 -0.224668
0.240619 -0.37815899 -0.221847
0.274993 -0.343786 -0.237018
0.34373999 -0.275038 -0.236957
0.37811401 -0.240665 -0.221771
0.41248801 -0.17191701 -0.224546
0.446861 -0.068795897 -0.21383201
0.446861 -0.0344222 -0.222078
0.446861 -4.8459999e-05 -0.224733
-0.44685501 0.034325201 -0.222271
-0.44685501 0.068699002 -0.214018
-0.41248199 0.17182 -0.22467899
-0.37810799 0.240568 -0.22176699
-0.343734 0.274941 -0.236964
-0.27498701 0.34368899 -0.23697799
-0.240613 0.37806299 -0.221763
-0.171866 0.41243601 -0.224492
-0.068744503 0.44681001 -0.213716
-0.034370702 0.44681001 -0.222001
2.9800001e-06 0.44681001 -0.22469001
0.446861 0.034325201 -0.22207101
0.446861 0.068699002 -0.213796
0.41248801 0.17182 -0.224573
0.34373999 0.274941 -0.23690601
0.37811401 0.240568 -0.221689
0.274993 0.34368899 -0.23687901
0.171872 0.41243601 -0.22448701
0.240619 0.37806299 -0.221707
0.034376699 0.44681001 -0.222039
0.068750396 0.44681001 -0.213771
-0.27498701 -0.38148099 -0.169962
-0.27981299 -0.37815899 -0.169962
-0.30936101 -0.35417899 -0.169962
-0.32104599 -0.343786 -0.169962
-0.343734 -0.321123 -0.169962
-0.35414499 -0.309412 -0.169962
-0.37810799 -0.27989399 -0.169962
-0.38145199 -0.275038 -0.169962
-0.206239 -0.42246199 -0.169962
-0.226695 -0.41253299 -0.169962
-0.137492 -0.44987699 -0.169962
-0.147925 -0.44690701 -0.169962
-0.171866 -0.438649 -0.169962
-0.103118 -0.45881701 -0.169962
-0.068744503 -0.46566299 -0.169962
-0.034370702 -0.46969 -0.169962
2.9800001e-06 -0.471021 -0.169962
-0.240613 -0.404906 -0.169962
-0.41248199 -0.226725 -0.169962
-0.422416 -0.20629101 -0.169962
-0.438586 -0.17191701 -0.169962
-0.44685501 -0.147949 -0.169962
-0.44982001 -0.13754299 -0.169962
-0.404838 -0.240665 -0.169962
-0.458765 -0.10317 -0.169962
-0.46559599 -0.068795897 -0.169962
-0.469623 -0.0344222 -0.169962
-0.470929 -4.8459999e-05 -0.169962
0.034376699 -0.46969399 -0.169962
0.068750396 -0.46565199 -0.169962
0.103124 -0.458801 -0.169962
0.13749801 -0.44988599 -0.169962
0.14799599 -0.44690701 -0.169962
0.171872 -0.43864399 -0.169962
0.20624501 -0.422418 -0.169962
0.226576 -0.41253299 -0.169962
0.240619 -0.40485901 -0.169962
0.274993 -0.38147101 -0.169962
0.27979699 -0.37815899 -0.169962
0.309367 -0.35413799 -0.169962
0.32099399 -0.343786 -0.169962
0.34373999 -0.321049 -0.169962
0.35408601 -0.309412 -0.169962
0.37811401 -0.27980399 -0.169962
0.38139501 -0.275038 -0.169962
0.404789 -0.240665 -0.169962
0.41248801 -0.22661699 -0.169962
0.42234701 -0.20629101 -0.169962
0.43850201 -0.17191701 -0.169962
0.446861 -0.147635 -0.169962
0.44972301 -0.13754299 -0.169962
0.458653 -0.10317 -0.169962
0.465471 -0.068795897 -0.169962
0.46948299 -0.0344222 -0.169962
0.47077101 -4.8459999e-05 -0.169962
-0.46963301 0.034325201 -0.169962
-0.46557799 0.068699002 -0.169962
-0.45873001 0.103073 -0.169962
-0.44979101 0.137446 -0.169962
-0.44685501 0.147773 -0.169962
-0.438584 0.17182 -0.169962
-0.422346 0.206194 -0.169962
-0.41248199 0.22646099 -0.169962
-0.40478101 0.240568 -0.169962
-0.38141501 0.274941 -0.169962
-0.37810799 0.279744 -0.169962
-0.35405999 0.309315 -0.169962
-0.343734 0.32093501 -0.169962
-0.320988 0.34368899 -0.169962
-0.30936101 0.35403201 -0.169962
-0.279746 0.37806299 -0.169962
-0.27498701 0.381331 -0.169962
-0.240613 0.40469399 -0.169962
-0.22651801 0.41243601 -0.169962
-0.206239 0.42227599 -0.169962
-0.171866 0.438427 -0.169962
-0.147484 0.44681001 -0.169962
-0.137492 0.44964501 -0.169962
-0.103118 0.45856699 -0.169962
-0.068744503 0.46539599 -0.169962
-0.034370702 0.46942401 -0.169962
2.9800001e-06 0.470723 -0.169962
0.46948001 0.034325201 -0.169962
0.465442 0.068699002 -0.169962
0.45860499 0.103073 -0.169962
0.449705 0.137446 -0.169962
0.41248801 0.22639801 -0.169962
0.404737 0.240568 -0.169962
0.38137701 0.274941 -0.169962
0.446861 0.147499 -0.169962
0.43849701 0.17182 -0.169962
0.42230299 0.206194 -0.169962
0.240619 0.40467101 -0.169962
0.226464 0.41243601 -0.169962
0.274993 0.381291 -0.169962
0.034376699 0.46942499 -0.169962
0.068750396 0.465404 -0.169962
0.103124 0.45856601 -0.169962
0.13749801 0.449642 -0.169962
0.171872 0.43842 -0.169962
0.147479 0.44681001 -0.169962
0.20624501 0.42225 -0.169962
0.34373999 0.320858 -0.169962
0.32089701 0.34368899 -0.169962
0.37811401 0.27967 -0.169962
0.35399699 0.309315 -0.169962
0.309367 0.35393599 -0.169962
0.27968499 0.37806299 -0.169962
-0.27498701 -0.37815899 -0.177817
-0.30936101 -0.343786 -0.19061001
-0.343734 -0.309412 -0.190559
-0.37810799 -0.275038 -0.177876
-0.206239 -0.41253299 -0.19390801
-0.137492 -0.44690701 -0.178376
-0.103118 -0.44690701 -0.20009001
-0.41248199 -0.20629101 -0.193938
-0.44685501 -0.13754299 -0.178389
-0.44685501 -0.10317 -0.200056
0.103124 -0.44690701 -0.200068
0.13749801 -0.44690701 -0.178418
0.20624501 -0.41253299 -0.19381601
0.274993 -0.37815899 -0.17779499
0.309367 -0.343786 -0.190524
0.34373999 -0.309412 -0.19048899
0.37811401 -0.275038 -0.17773101
0.41248801 -0.20629101 -0.19382299
0.446861 -0.13754299 -0.17811801
0.446861 -0.10317 -0.199855
-0.44685501 0.103073 -0.2
-0.44685501 0.137446 -0.178307
-0.41248199 0.206194 -0.19378801
-0.37810799 0.274941 -0.177772
-0.343734 0.309315 -0.19047
-0.30936101 0.34368899 -0.190475
-0.27498701 0.37806299 -0.177717
-0.206239 0.41243601 -0.193776
-0.137492 0.44681001 -0.17804299
-0.103118 0.44681001 -0.199801
0.446861 0.103073 -0.199789
0.446861 0.137446 -0.178073
0.41248801 0.206194 -0.19373
0.37811401 0.274941 -0.177698
0.20624501 0.41243601 -0.19372
0.274993 0.37806299 -0.17762899
0.103124 0.44681001 -0.1998
0.13749801 0.44681001 -0.178028
0.34373999 0.309315 -0.19038001
0.309367 0.34368899 -0.19033
-0.27498701 -0.395531 -0.13558801
-0.29877701 -0.37815899 -0.13558801
-0.30936101 -0.36976099 -0.13558801
-0.337843 -0.343786 -0.13558801
-0.343734 -0.33790699 -0.13558801
-0.36972299 -0.309412 -0.13558801
-0.37810799 -0.298841 -0.13558801
-0.39549699 -0.275038 -0.13558801
-0.240613 -0.41701201 -0.13558801
-0.24886701 -0.41253299 -0.13558801
-0.206239 -0.43587101 -0.13558801
-0.171866 -0.44992101 -0.13558801
-0.180434 -0.44690701 -0.13558801
-0.137492 -0.46161401 -0.13558801
2.9800001e-06 -0.48178801 -0.13558801
-0.023143001 -0.48128101 -0.13558801
-0.103118 -0.47110799 -0.13558801
-0.068744503 -0.47728199 -0.13558801
-0.034370702 -0.480667 -0.13558801
-0.41248199 -0.24889199 -0.13558801
-0.41694301 -0.240665 -0.13558801
-0.43581399 -0.20629101 -0.13558801
-0.44685501 -0.18045101 -0.13558801
-0.44985399 -0.17191701 -0.13558801
-0.461519 -0.13754299 -0.13558801
-0.47103599 -0.10317 -0.13558801
-0.477227 -0.068795897 -0.13558801
-0.48122901 -0.0224423 -0.13558801
-0.48169801 -4.8459999e-05 -0.13558801
-0.480616 -0.0344222 -0.13558801
0.023289001 -0.48128101 -0.13558801
0.034376699 -0.48067501 -0.13558801
0.068750396 -0.47727799 -0.13558801
0.103124 -0.47108999 -0.13558801
0.13749801 -0.46160901 -0.13558801
0.171872 -0.44991201 -0.13558801
0.18038601 -0.44690701 -0.13558801
0.20624501 -0.435821 -0.13558801
0.240619 -0.41698 -0.13558801
0.248851 -0.41253299 -0.13558801
0.274993 -0.39552301 -0.13558801
0.29876301 -0.37815899 -0.13558801
0.309367 -0.36973199 -0.13558801
0.33778301 -0.343786 -0.13558801
0.34373999 -0.337834 -0.13558801
0.36965999 -0.309412 -0.13558801
0.37811401 -0.298756 -0.13558801
0.39542899 -0.275038 -0.13558801
0.41248801 -0.24875601 -0.13558801
0.41687301 -0.240665 -0.13558801
0.43572199 -0.20629101 -0.13558801
0.446861 -0.180188 -0.13558801
0.44975901 -0.17191701 -0.13558801
0.461384 -0.13754299 -0.13558801
0.47088301 -0.10317 -0.13558801
0.47706899 -0.068795897 -0.13558801
0.48044601 -0.0344222 -0.13558801
0.481235 -0.017336501 -0.13558801
0.48151299 -4.8459999e-05 -0.13558801
-0.48122901 0.0230054 -0.13558801
-0.48062399 0.034325201 -0.13558801
-0.477182 0.068699002 -0.13558801
-0.47099 0.103073 -0.13558801
-0.46151301 0.137446 -0.13558801
-0.44986901 0.17182 -0.13558801
-0.44685501 0.180391 -0.13558801
-0.43577701 0.206194 -0.13558801
-0.416915 0.240568 -0.13558801
-0.41248199 0.248739 -0.13558801
-0.39544699 0.274941 -0.13558801
-0.37810799 0.29867601 -0.13558801
-0.369629 0.309315 -0.13558801
-0.343734 0.33772501 -0.13558801
-0.33778 0.34368899 -0.13558801
-0.30936101 0.369573 -0.13558801
-0.29866499 0.37806299 -0.13558801
-0.27498701 0.395345 -0.13558801
-0.24864399 0.41243601 -0.13558801
-0.240613 0.41679201 -0.13558801
-0.206239 0.43566 -0.13558801
-0.180099 0.44681001 -0.13558801
-0.171866 0.44969401 -0.13558801
-0.137492 0.46130601 -0.13558801
-0.103118 0.47077399 -0.13558801
-0.068744503 0.47699499 -0.13558801
-0.034370702 0.48039499 -0.13558801
-0.017737299 0.48118401 -0.13558801
2.9800001e-06 0.48146999 -0.13558801
0.481235 0.017865101 -0.13558801
0.48044699 0.034325201 -0.13558801
0.47702301 0.068699002 -0.13558801
0.47081599 0.103073 -0.13558801
0.46136901 0.137446 -0.13558801
0.41248801 0.24862 -0.13558801
0.39538899 0.274941 -0.13558801
0.449781 0.17182 -0.13558801
0.446861 0.18016399 -0.13558801
0.43571201 0.206194 -0.13558801
0.41684699 0.240568 -0.13558801
0.274993 0.39530599 -0.13558801
0.248614 0.41243601 -0.13558801
0.034376699 0.48039401 -0.13558801
0.017801801 0.48118401 -0.13558801
0.068750396 0.47700101 -0.13558801
0.103124 0.47078401 -0.13558801
0.13749801 0.461301 -0.13558801
0.20624501 0.435646 -0.13558801
0.180141 0.44681001 -0.13558801
0.171872 0.44970101 -0.13558801
0.240619 0.416774 -0.13558801
0.34373999 0.33769199 -0.13558801
0.337749 0.34368899 -0.13558801
0.37811401 0.29858801 -0.13558801
0.36957899 0.309315 -0.13558801
0.309367 0.36953399 -0.13558801
0.29862401 0.37806299 -0.13558801
-0.240613 -0.41253299 -0.149719
-0.171866 -0.44690701 -0.146091
2.9800001e-06 -0.48128101 -0.13753401
-0.41248199 -0.240665 -0.149643
-0.44685501 -0.17191701 -0.146024
-0.48122901 -4.8459999e-05 -0.137384
0.171872 -0.44690701 -0.14605901
0.240619 -0.41253299 -0.149601
0.41248801 -0.240665 -0.149444
0.446861 -0.17191701 -0.145706
0.481235 -4.8459999e-05 -0.13666201
-0.44685501 0.17182 -0.14607701
-0.41248199 0.240568 -0.149561
-0.240613 0.41243601 -0.14931899
-0.171866 0.44681001 -0.14567401
2.9800001e-06 0.48118401 -0.136696
0.41248801 0.240568 -0.149354
0.446861 0.17182 -0.14578301
0.240619 0.41243601 -0.14928401
0.171872 0.44681001 -0.14569101
-0.343734 -0.34914699 -0.101215
-0.34909701 -0.343786 -0.101215
-0.30936101 -0.38009399 -0.101215
-0.31180999 -0.37815899 -0.101215
-0.27498701 -0.4064 -0.101215
-0.37810799 -0.31188801 -0.101215
-0.38006699 -0.309412 -0.101215
-0.40637299 -0.275038 -0.101215
-0.240613 -0.426884 -0.101215
-0.26528001 -0.41253299 -0.101215
-0.206239 -0.445142 -0.101215
-0.171866 -0.458832 -0.101215
-0.202029 -0.44690701 -0.101215
-0.137492 -0.47106999 -0.101215
-0.068744503 -0.48513401 -0.101215
-0.093919799 -0.48128101 -0.101215
-0.034370702 -0.48865399 -0.101215
2.9800001e-06 -0.48987001 -0.101215
-0.103118 -0.479577 -0.101215
-0.41248199 -0.26532501 -0.101215
-0.42682099 -0.240665 -0.101215
-0.445097 -0.20629101 -0.101215
-0.44685501 -0.202094 -0.101215
-0.45877299 -0.17191701 -0.101215
-0.47097999 -0.13754299 -0.101215
-0.48122901 -0.093892902 -0.101215
-0.48506999 -0.068795897 -0.101215
-0.479509 -0.10317 -0.101215
-0.48858899 -0.0344222 -0.101215
-0.48979801 -4.8459999e-05 -0.101215
0.034376699 -0.488657 -0.101215
0.068750396 -0.485127 -0.101215
0.093874797 -0.48128101 -0.101215
0.103124 -0.47957101 -0.101215
0.13749801 -0.47106799 -0.101215
0.171872 -0.45882401 -0.101215
0.20199101 -0.44690701 -0.101215
0.20624501 -0.44512099 -0.101215
0.240619 -0.42686701 -0.101215
0.26527399 -0.41253299 -0.101215
0.274993 -0.40639001 -0.101215
0.309367 -0.38007399 -0.101215
0.311786 -0.37815899 -0.101215
0.34373999 -0.349103 -0.101215
0.34905601 -0.343786 -0.101215
0.37811401 -0.31182 -0.101215
0.380018 -0.309412 -0.101215
0.40630201 -0.275038 -0.101215
0.41248801 -0.26517999 -0.101215
0.42672601 -0.240665 -0.101215
0.445007 -0.20629101 -0.101215
0.446861 -0.201859 -0.101215
0.458648 -0.17191701 -0.101215
0.47081199 -0.13754299 -0.101215
0.47931999 -0.10317 -0.101215
0.481235 -0.092709899 -0.101215
0.484862 -0.068795897 -0.101215
0.488343 -0.0344222 -0.101215
0.48953199 -4.8459999e-05 -0.101215
-0.48859099 0.034325201 -0.101215
-0.485019 0.068699002 -0.101215
-0.48122901 0.093376897 -0.101215
-0.47946 0.103073 -0.101215
-0.47099599 0.137446 -0.101215
-0.458772 0.17182 -0.101215
-0.44685501 0.201928 -0.101215
-0.44507 0.206194 -0.101215
-0.426808 0.240568 -0.101215
-0.41248199 0.26515001 -0.101215
-0.406284 0.274941 -0.101215
-0.37997699 0.309315 -0.101215
-0.37810799 0.311683 -0.101215
-0.34901801 0.34368899 -0.101215
-0.343734 0.34897199 -0.101215
-0.31170499 0.37806299 -0.101215
-0.30936101 0.379913 -0.101215
-0.27498701 0.406243 -0.101215
-0.26518199 0.41243601 -0.101215
-0.240613 0.42671499 -0.101215
-0.206239 0.444976 -0.101215
-0.201849 0.44681001 -0.101215
-0.171866 0.45858899 -0.101215
-0.137492 0.470734 -0.101215
-0.103118 0.47919101 -0.101215
-0.092333399 0.48118401 -0.101215
-0.068744503 0.48478699 -0.101215
-0.034370702 0.48829499 -0.101215
2.9800001e-06 0.48947299 -0.101215
0.48834401 0.034325201 -0.101215
0.48480299 0.068699002 -0.101215
0.481235 0.092212901 -0.101215
0.47927299 0.103073 -0.101215
0.470833 0.137446 -0.101215
0.41248801 0.265055 -0.101215
0.40622899 0.274941 -0.101215
0.458664 0.17182 -0.101215
0.446861 0.20175301 -0.101215
0.44500199 0.206194 -0.101215
0.42673501 0.240568 -0.101215
0.274993 0.406205 -0.101215
0.26510599 0.41243601 -0.101215
0.103124 0.47920099 -0.101215
0.092366003 0.48118401 -0.101215
0.13749801 0.47073001 -0.101215
0.034376699 0.48829001 -0.101215
0.068750396 0.48479199 -0.101215
0.20624501 0.44497299 -0.101215
0.201867 0.44681001 -0.101215
0.171872 0.45860699 -0.101215
0.240619 0.42667601 -0.101215
0.37992999 0.309315 -0.101215
0.37811401 0.31161699 -0.101215
0.34897599 0.34368899 -0.101215
0.34373999 0.34892401 -0.101215
0.31167799 0.37806299 -0.101215
0.309367 0.379888 -0.101215
-0.343734 -0.343786 -0.119224
-0.30936101 -0.37815899 -0.10895
-0.37810799 -0.309412 -0.109026
-0.068744503 -0.48128101 -0.119533
-0.034370702 -0.48128101 -0.13320599
-0.48122901 -0.068795897 -0.11949
-0.48122901 -0.0344222 -0.133203
0.034376699 -0.48128101 -0.133237
0.068750396 -0.48128101 -0.119528
0.309367 -0.37815899 -0.10888
0.34373999 -0.343786 -0.119071
0.37811401 -0.309412 -0.108816
0.481235 -0.068795897 -0.118684
0.481235 -0.0344222 -0.13249101
-0.48122901 0.034325201 -0.13323499
-0.48122901 0.068699002 -0.11928
-0.37810799 0.309315 -0.108735
-0.343734 0.34368899 -0.118987
-0.30936101 0.37806299 -0.108616
-0.068744503 0.48118401 -0.1186
-0.034370702 0.48118401 -0.132505
0.481235 0.034325201 -0.13249999
0.481235 0.068699002 -0.118461
0.034376699 0.48118401 -0.132498
0.068750396 0.48118401 -0.118627
0.34373999 0.34368899 -0.11884
0.37811401 0.309315 -0.108517
0.309367 0.37806299 -0.108522
-0.27498701 -0.413037 -0.066840999
-0.27579299 -0.41253299 -0.066840999
-0.41248199 -0.27583599 -0.066840999
-0.412981 -0.275038 -0.066840999
-0.343734 -0.35754001 -0.066840999
-0.357465 -0.343786 -0.066840999
-0.30936101 -0.387436 -0.066840999
-0.32094699 -0.37815899 -0.066840999
-0.37810799 -0.32096499 -0.066840999
-0.38735101 -0.309412 -0.066840999
-0.206239 -0.45102099 -0.066840999
-0.215903 -0.44690701 -0.066840999
-0.240613 -0.43432501 -0.066840999
-0.171866 -0.465628 -0.066840999
-0.137492 -0.47722101 -0.066840999
-0.103118 -0.48513001 -0.066840999
-0.121157 -0.48128101 -0.066840999
-0.068744503 -0.49104801 -0.066840999
-0.034370702 -0.49465901 -0.066840999
2.9800001e-06 -0.49583 -0.066840999
-0.43430799 -0.240665 -0.066840999
-0.44685501 -0.216158 -0.066840999
-0.45102501 -0.20629101 -0.066840999
-0.46555099 -0.17191701 -0.066840999
-0.47713101 -0.13754299 -0.066840999
-0.48122901 -0.121107 -0.066840999
-0.485053 -0.10317 -0.066840999
-0.49099001 -0.068795897 -0.066840999
-0.49459001 -0.0344222 -0.066840999
-0.49577901 -4.8459999e-05 -0.066840999
0.034376699 -0.49465799 -0.066840999
0.068750396 -0.491036 -0.066840999
0.103124 -0.48512101 -0.066840999
0.121145 -0.48128101 -0.066840999
0.13749801 -0.47721699 -0.066840999
0.171872 -0.46561801 -0.066840999
0.20624501 -0.451006 -0.066840999
0.21586899 -0.44690701 -0.066840999
0.240619 -0.434306 -0.066840999
0.274993 -0.413017 -0.066840999
0.27576801 -0.41253299 -0.066840999
0.309367 -0.387411 -0.066840999
0.320914 -0.37815899 -0.066840999
0.34373999 -0.35748699 -0.066840999
0.357407 -0.343786 -0.066840999
0.37811401 -0.32088399 -0.066840999
0.38729301 -0.309412 -0.066840999
0.41248801 -0.27573299 -0.066840999
0.41292101 -0.275038 -0.066840999
0.43421301 -0.240665 -0.066840999
0.446861 -0.215913 -0.066840999
0.45093 -0.20629101 -0.066840999
0.465424 -0.17191701 -0.066840999
0.47694999 -0.13754299 -0.066840999
0.481235 -0.120201 -0.066840999
0.484817 -0.10317 -0.066840999
0.49072301 -0.068795897 -0.066840999
0.49427301 -0.0344222 -0.066840999
0.49543801 -4.8459999e-05 -0.066840999
-0.49457499 0.034325201 -0.066840999
-0.49093199 0.068699002 -0.066840999
-0.48501799 0.103073 -0.066840999
-0.48122901 0.121097 -0.066840999
-0.47716701 0.137446 -0.066840999
-0.46554899 0.17182 -0.066840999
-0.45095599 0.206194 -0.066840999
-0.44685501 0.215845 -0.066840999
-0.434255 0.240568 -0.066840999
-0.41290799 0.274941 -0.066840999
-0.41248199 0.27561799 -0.066840999
-0.38728401 0.309315 -0.066840999
-0.37810799 0.320829 -0.066840999
-0.35749599 0.34368899 -0.066840999
-0.343734 0.35742801 -0.066840999
-0.32080901 0.37806299 -0.066840999
-0.30936101 0.387182 -0.066840999
-0.275653 0.41243601 -0.066840999
-0.27498701 0.412857 -0.066840999
-0.240613 0.43417701 -0.066840999
-0.21576101 0.44681001 -0.066840999
-0.206239 0.45085999 -0.066840999
-0.171866 0.46539399 -0.066840999
-0.137492 0.47689101 -0.066840999
-0.119807 0.48118401 -0.066840999
-0.103118 0.48468599 -0.066840999
-0.068744503 0.49063101 -0.066840999
-0.034370702 0.49422699 -0.066840999
2.9800001e-06 0.49537 -0.066840999
0.494261 0.034325201 -0.066840999
0.49065399 0.068699002 -0.066840999
0.481235 0.120241 -0.066840999
0.47699401 0.137446 -0.066840999
0.48480201 0.103073 -0.066840999
0.465417 0.17182 -0.066840999
0.45086101 0.206194 -0.066840999
0.446861 0.215624 -0.066840999
0.43417299 0.240568 -0.066840999
0.41286001 0.274941 -0.066840999
0.13749801 0.47690001 -0.066840999
0.119907 0.48118401 -0.066840999
0.034376699 0.494221 -0.066840999
0.068750396 0.49063799 -0.066840999
0.103124 0.484703 -0.066840999
0.171872 0.46540299 -0.066840999
0.20624501 0.45085201 -0.066840999
0.240619 0.434156 -0.066840999
0.215753 0.44681001 -0.066840999
0.274993 0.41283301 -0.066840999
0.41248801 0.27553299 -0.066840999
0.38724101 0.309315 -0.066840999
0.37811401 0.32077 -0.066840999
0.35745499 0.34368899 -0.066840999
0.34373999 0.35738599 -0.066840999
0.32077801 0.37806299 -0.066840999
0.309367 0.38715401 -0.066840999
0.27562201 0.41243601 -0.066840999
-0.27498701 -0.41253299 -0.070268899
-0.41248199 -0.275038 -0.070268199
-0.206239 -0.44690701 -0.0922115
-0.103118 -0.48128101 -0.091898799
-0.44685501 -0.20629101 -0.09228
-0.48122901 -0.10317 -0.091816701
0.103124 -0.48128101 -0.091853298
0.20624501 -0.44690701 -0.092111401
0.274993 -0.41253299 -0.070137501
0.41248801 -0.275038 -0.0698184
0.446861 -0.20629101 -0.091771998
0.481235 -0.10317 -0.090608597
-0.48122901 0.103073 -0.091544598
-0.44685501 0.206194 -0.092133999
-0.41248199 0.274941 -0.069721997
-0.27498701 0.41243601 -0.069724597
-0.206239 0.44681001 -0.091876402
-0.103118 0.48118401 -0.090155199
0.481235 0.103073 -0.090422697
0.41248801 0.274941 -0.069367997
0.446861 0.206194 -0.091693997
0.274993 0.41243601 -0.069559202
0.103124 0.48118401 -0.090227999
0.20624501 0.44681001 -0.091860302
-0.27498701 -0.416832 -0.032467201
-0.28181201 -0.41253299 -0.032467201
-0.41248199 -0.28172499 -0.032467201
-0.41673499 -0.275038 -0.032467201
-0.343734 -0.36281401 -0.032467201
-0.36274499 -0.343786 -0.032467201
-0.30936101 -0.39213201 -0.032467201
-0.32666001 -0.37815899 -0.032467201
-0.37810799 -0.32669199 -0.032467201
-0.39199999 -0.309412 -0.032467201
-0.206239 -0.45474601 -0.032467201
-0.224075 -0.44690701 -0.032467201
-0.240613 -0.43858799 -0.032467201
-0.171866 -0.469625 -0.032467201
-0.137492 -0.48060399 -0.032467201
-0.103118 -0.48866799 -0.032467201
-0.13484301 -0.48128101 -0.032467201
-0.068744503 -0.494674 -0.032467201
-0.034370702 -0.49814999 -0.032467201
2.9800001e-06 -0.49924201 -0.032467201
-0.438613 -0.240665 -0.032467201
-0.44685501 -0.22451 -0.032467201
-0.45482799 -0.20629101 -0.032467201
-0.46958199 -0.17191701 -0.032467201
-0.48052499 -0.13754299 -0.032467201
-0.48122901 -0.134773 -0.032467201
-0.488554 -0.10317 -0.032467201
-0.49462599 -0.068795897 -0.032467201
-0.49809301 -0.0344222 -0.032467201
-0.49919701 -4.8459999e-05 -0.032467201
0.034376699 -0.49814901 -0.032467201
0.068750396 -0.49466899 -0.032467201
0.103124 -0.48865601 -0.032467201
0.134813 -0.48128101 -0.032467201
0.13749801 -0.48059499 -0.032467201
0.171872 -0.469616 -0.032467201
0.20624501 -0.45473301 -0.032467201
0.224039 -0.44690701 -0.032467201
0.240619 -0.438568 -0.032467201
0.274993 -0.41681299 -0.032467201
0.281789 -0.41253299 -0.032467201
0.309367 -0.39210901 -0.032467201
0.326628 -0.37815899 -0.032467201
0.34373999 -0.362762 -0.032467201
0.36267099 -0.343786 -0.032467201
0.37811401 -0.32656899 -0.032467201
0.391927 -0.309412 -0.032467201
0.41248801 -0.28167701 -0.032467201
0.41670299 -0.275038 -0.032467201
0.43852401 -0.240665 -0.032467201
0.446861 -0.224176 -0.032467201
0.454694 -0.20629101 -0.032467201
0.469455 -0.17191701 -0.032467201
0.48036101 -0.13754299 -0.032467201
0.481235 -0.134058 -0.032467201
0.48829901 -0.10317 -0.032467201
0.49432001 -0.068795897 -0.032467201
0.49773899 -0.0344222 -0.032467201
0.49881601 -4.8459999e-05 -0.032467201
-0.498068 0.034325201 -0.032467201
-0.49455601 0.068699002 -0.032467201
-0.48854899 0.103073 -0.032467201
-0.48122901 0.134848 -0.032467201
-0.48056 0.137446 -0.032467201
-0.469549 0.17182 -0.032467201
-0.45466501 0.206194 -0.032467201
-0.44685501 0.223957 -0.032467201
-0.43849099 0.240568 -0.032467201
-0.416767 0.274941 -0.032467201
-0.41248199 0.281746 -0.032467201
-0.392055 0.309315 -0.032467201
-0.37810799 0.32659 -0.032467201
-0.362753 0.34368899 -0.032467201
-0.343734 0.36263901 -0.032467201
-0.326446 0.37806299 -0.032467201
-0.30936101 0.39180699 -0.032467201
-0.28158399 0.41243601 -0.032467201
-0.27498701 0.41664001 -0.032467201
-0.240613 0.43843901 -0.032467201
-0.22393399 0.44681001 -0.032467201
-0.206239 0.454566 -0.032467201
-0.171866 0.46939701 -0.032467201
-0.137492 0.48027799 -0.032467201
-0.13385201 0.48118401 -0.032467201
-0.103118 0.48817801 -0.032467201
-0.068744503 0.49419901 -0.032467201
-0.034370702 0.49769801 -0.032467201
2.9800001e-06 0.49875101 -0.032467201
0.49771601 0.034325201 -0.032467201
0.49424201 0.068699002 -0.032467201
0.481235 0.134084 -0.032467201
0.48037899 0.137446 -0.032467201
0.48829001 0.103073 -0.032467201
0.46941 0.17182 -0.032467201
0.454561 0.206194 -0.032467201
0.446861 0.22375099 -0.032467201
0.43841201 0.240568 -0.032467201
0.41671401 0.274941 -0.032467201
0.13749801 0.48029199 -0.032467201
0.133922 0.48118401 -0.032467201
0.034376699 0.49768999 -0.032467201
0.068750396 0.494212 -0.032467201
0.103124 0.48819399 -0.032467201
0.171872 0.46940699 -0.032467201
0.20624501 0.45456201 -0.032467201
0.240619 0.43843001 -0.032467201
0.223937 0.44681001 -0.032467201
0.274993 0.41662201 -0.032467201
0.41248801 0.28165701 -0.032467201
0.392005 0.309315 -0.032467201
0.37811401 0.32653201 -0.032467201
0.36271599 0.34368899 -0.032467201
0.34373999 0.362598 -0.032467201
0.32641199 0.37806299 -0.032467201
0.309367 0.39177799 -0.032467201
0.28156099 0.41243601 -0.032467201
-0.27498701 -0.41819099 0.00190645
-0.28391001 -0.41253299 0.00190645
-0.41248199 -0.28378999 0.00190645
-0.41808999 -0.275038 0.00190645
-0.343734 -0.364645 0.00190645
-0.36459199 -0.343786 0.00190645
-0.30936101 -0.39377901 0.00190645
-0.32863399 -0.37815899 0.00190645
-0.37810799 -0.32870299 0.00190645
-0.39366299 -0.309412 0.00190645
-0.137492 -0.48172 0.00190645
-0.139191 -0.48128101 0.00190645
-0.206239 -0.45609099 0.00190645
-0.226823 -0.44690701 0.00190645
-0.240613 -0.439991 0.00190645
-0.171866 -0.470961 0.00190645
-0.103118 -0.489889 0.00190645
-0.068744503 -0.49586299 0.00190645
-0.034370702 -0.49926001 0.00190645
2.9800001e-06 -0.50032699 0.00190645
-0.44002801 -0.240665 0.00190645
-0.44685501 -0.227245 0.00190645
-0.45618901 -0.20629101 0.00190645
-0.48122901 -0.139208 0.00190645
-0.48165399 -0.13754299 0.00190645
-0.47094101 -0.17191701 0.00190645
-0.48976201 -0.10317 0.00190645
-0.495821 -0.068795897 0.00190645
-0.49920601 -0.0344222 0.00190645
-0.50027502 -4.8459999e-05 0.00190645
0.034376699 -0.499255 0.00190645
0.068750396 -0.49586001 0.00190645
0.103124 -0.48988 0.00190645
0.13749801 -0.48170799 0.00190645
0.13915101 -0.48128101 0.00190645
0.171872 -0.47095001 0.00190645
0.20624501 -0.45607501 0.00190645
0.226786 -0.44690701 0.00190645
0.240619 -0.439971 0.00190645
0.274993 -0.418172 0.00190645
0.283887 -0.41253299 0.00190645
0.309367 -0.39375499 0.00190645
0.32860199 -0.37815899 0.00190645
0.34373999 -0.364604 0.00190645
0.36452499 -0.343786 0.00190645
0.37811401 -0.32857201 0.00190645
0.393583 -0.309412 0.00190645
0.41248801 -0.28376701 0.00190645
0.41807601 -0.275038 0.00190645
0.439933 -0.240665 0.00190645
0.446861 -0.226873 0.00190645
0.45603299 -0.20629101 0.00190645
0.47081 -0.17191701 0.00190645
0.481235 -0.13855299 0.00190645
0.481489 -0.13754299 0.00190645
0.489492 -0.10317 0.00190645
0.49548399 -0.068795897 0.00190645
0.49882901 -0.0344222 0.00190645
0.49987799 -4.8459999e-05 0.00190645
-0.49917299 0.034325201 0.00190645
-0.49574199 0.068699002 0.00190645
-0.489764 0.103073 0.00190645
-0.48166999 0.137446 0.00190645
-0.48122901 0.13913301 0.00190645
-0.47088501 0.17182 0.00190645
-0.45600101 0.206194 0.00190645
-0.44685501 0.22668 0.00190645
-0.439879 0.240568 0.00190645
-0.418167 0.274941 0.00190645
-0.41248199 0.28395101 0.00190645
-0.39377099 0.309315 0.00190645
-0.37810799 0.32859799 0.00190645
-0.36453801 0.34368899 0.00190645
-0.343734 0.36439601 0.00190645
-0.328401 0.37806299 0.00190645
-0.30936101 0.39346999 0.00190645
-0.28370199 0.41243601 0.00190645
-0.27498701 0.418008 0.00190645
-0.240613 0.43983299 0.00190645
-0.226689 0.44681001 0.00190645
-0.206239 0.455897 0.00190645
-0.171866 0.47073099 0.00190645
-0.138271 0.48118401 0.00190645
-0.137492 0.481379 0.00190645
-0.103118 0.48937801 0.00190645
-0.068744503 0.49536499 0.00190645
-0.034370702 0.49879301 0.00190645
2.9800001e-06 0.49981099 0.00190645
0.498799 0.034325201 0.00190645
0.495401 0.068699002 0.00190645
0.48949099 0.103073 0.00190645
0.48148701 0.137446 0.00190645
0.481235 0.13842 0.00190645
0.47073299 0.17182 0.00190645
0.45589101 0.206194 0.00190645
0.446861 0.22648001 0.00190645
0.43979701 0.240568 0.00190645
0.41811299 0.274941 0.00190645
0.034376699 0.498781 0.00190645
0.068750396 0.495381 0.00190645
0.103124 0.48939499 0.00190645
0.13749801 0.48139799 0.00190645
0.171872 0.470743 0.00190645
0.13835099 0.48118401 0.00190645
0.20624501 0.45589501 0.00190645
0.240619 0.43981799 0.00190645
0.22668 0.44681001 0.00190645
0.274993 0.41798401 0.00190645
0.41248801 0.28386801 0.00190645
0.39372301 0.309315 0.00190645
0.37811401 0.32854 0.00190645
0.364501 0.34368899 0.00190645
0.34373999 0.36435199 0.00190645
0.328361 0.37806299 0.00190645
0.309367 0.393444 0.00190645
0.28367099 0.41243601 0.00190645
-0.137492 -0.48128101 -0.019896399
-0.48122901 -0.13754299 -0.0194155
0.13749801 -0.48128101 -0.019610699
0.481235 -0.13754299 -0.0147138
-0.48122901 0.137446 -0.0199586
-0.137492 0.48118401 -0.0129349
0.481235 0.137446 -0.014811
0.13749801 0.48118401 -0.0136082
-0.27498701 -0.41683999 0.0362802
-0.28181401 -0.41253299 0.0362802
-0.41248199 -0.28174099 0.0362802
-0.41674501 -0.275038 0.0362802
-0.343734 -0.36278501 0.0362802
-0.36270699 -0.343786 0.0362802
-0.30936101 -0.39213201 0.0362802
-0.32664299 -0.37815899 0.0362802
-0.37810799 -0.32665601 0.0362802
-0.39200199 -0.309412 0.0362802
-0.206239 -0.45476201 0.0362802
-0.224094 -0.44690701 0.0362802
-0.240613 -0.43858501 0.0362802
-0.171866 -0.46962199 0.0362802
-0.137492 -0.480607 0.0362802
-0.103118 -0.48866001 0.0362802
-0.134855 -0.48128101 0.0362802
-0.068744503 -0.49465799 0.0362802
-0.034370702 -0.498144 0.0362802
2.9800001e-06 -0.49924299 0.0362802
-0.43860999 -0.240665 0.0362802
-0.44685501 -0.22450601 0.0362802
-0.45483199 -0.20629101 0.0362802
-0.46957099 -0.17191701 0.0362802
-0.480515 -0.13754299 0.0362802
-0.48122901 -0.134748 0.0362802
-0.48855299 -0.10317 0.0362802
-0.49461001 -0.068795897 0.0362802
-0.498088 -0.0344222 0.0362802
-0.499194 -4.8459999e-05 0.0362802
0.034376699 -0.49814501 0.0362802
0.068750396 -0.49465001 0.0362802
0.103124 -0.48864901 0.0362802
0.134826 -0.48128101 0.0362802
0.13749801 -0.48059899 0.0362802
0.171872 -0.46961501 0.0362802
0.20624501 -0.45474699 0.0362802
0.224061 -0.44690701 0.0362802
0.240619 -0.43856701 0.0362802
0.274993 -0.416821 0.0362802
0.28178799 -0.41253299 0.0362802
0.309367 -0.39210299 0.0362802
0.326608 -0.37815899 0.0362802
0.34373999 -0.36276001 0.0362802
0.36268201 -0.343786 0.0362802
0.37811401 -0.32659 0.0362802
0.391938 -0.309412 0.0362802
0.41248801 -0.281663 0.0362802
0.416706 -0.275038 0.0362802
0.43852901 -0.240665 0.0362802
0.446861 -0.224223 0.0362802
0.45471799 -0.20629101 0.0362802
0.46945599 -0.17191701 0.0362802
0.480358 -0.13754299 0.0362802
0.481235 -0.134032 0.0362802
0.48827901 -0.10317 0.0362802
0.49430099 -0.068795897 0.0362802
0.49772599 -0.0344222 0.0362802
0.498806 -4.8459999e-05 0.0362802
-0.49805799 0.034325201 0.0362802
-0.49453801 0.068699002 0.0362802
-0.48853299 0.103073 0.0362802
-0.48122901 0.13484 0.0362802
-0.48055899 0.137446 0.0362802
-0.46955299 0.17182 0.0362802
-0.45467401 0.206194 0.0362802
-0.44685501 0.223948 0.0362802
-0.43848199 0.240568 0.0362802
-0.41677499 0.274941 0.0362802
-0.41248199 0.28176299 0.0362802
-0.392088 0.309315 0.0362802
-0.37810799 0.32660899 0.0362802
-0.36274201 0.34368899 0.0362802
-0.343734 0.362636 0.0362802
-0.326469 0.37806299 0.0362802
-0.30936101 0.39183 0.0362802
-0.281609 0.41243601 0.0362802
-0.27498701 0.41665101 0.0362802
-0.240613 0.43842101 0.0362802
-0.22392701 0.44681001 0.0362802
-0.206239 0.45456901 0.0362802
-0.171866 0.46939999 0.0362802
-0.137492 0.48027799 0.0362802
-0.13384999 0.48118401 0.0362802
-0.103118 0.488168 0.0362802
-0.068744503 0.49418399 0.0362802
-0.034370702 0.49768901 0.0362802
2.9800001e-06 0.498741 0.0362802
0.49769801 0.034325201 0.0362802
0.494216 0.068699002 0.0362802
0.481235 0.134064 0.0362802
0.48037401 0.137446 0.0362802
0.488269 0.103073 0.0362802
0.46940601 0.17182 0.0362802
0.45457301 0.206194 0.0362802
0.446861 0.223758 0.0362802
0.43841201 0.240568 0.0362802
0.416724 0.274941 0.0362802
0.13749801 0.480286 0.0362802
0.133901 0.48118401 0.0362802
0.034376699 0.497677 0.0362802
0.068750396 0.49419901 0.0362802
0.103124 0.488188 0.0362802
0.171872 0.469401 0.0362802
0.20624501 0.454561 0.0362802
0.240619 0.438411 0.0362802
0.223903 0.44681001 0.0362802
0.274993 0.416612 0.0362802
0.41248801 0.28166699 0.0362802
0.392014 0.309315 0.0362802
0.37811401 0.32653201 0.0362802
0.362717 0.34368899 0.0362802
0.34373999 0.36259899 0.0362802
0.326399 0.37806299 0.0362802
0.309367 0.391776 0.0362802
0.28154501 0.41243601 0.0362802
-0.137492 -0.48128101 0.023258399
-0.48122901 -0.13754299 0.022629799
0.13749801 -0.48128101 0.023025099
0.481235 -0.13754299 0.017839201
-0.48122901 0.137446 0.0233385
-0.137492 0.48118401 0.016085399
0.481235 0.137446 0.0179464
0.13749801 0.48118401 0.016658001
-0.27498701 -0.41298199 0.070653901
-0.27570599 -0.41253299 0.070653901
-0.41248199 -0.275722 0.070653901
-0.412909 -0.275038 0.070653901
-0.343734 -0.35741401 0.070653901
-0.357346 -0.343786 0.070653901
-0.30936101 -0.38734999 0.070653901
-0.32083601 -0.37815899 0.070653901
-0.37810799 -0.32084301 0.070653901
-0.38725299 -0.309412 0.070653901
-0.206239 -0.45098099 0.070653901
-0.215832 -0.44690701 0.070653901
-0.240613 -0.43427601 0.070653901
-0.171866 -0.46558201 0.070653901
-0.137492 -0.47720301 0.070653901
-0.103118 -0.48511001 0.070653901
-0.121091 -0.48128101 0.070653901
-0.068744503 -0.49102899 0.070653901
-0.034370702 -0.494647 0.070653901
2.9800001e-06 -0.495823 0.070653901
-0.434232 -0.240665 0.070653901
-0.44685501 -0.216028 0.070653901
-0.45097101 -0.20629101 0.070653901
-0.46550801 -0.17191701 0.070653901
-0.47709101 -0.13754299 0.070653901
-0.48122901 -0.121011 0.070653901
-0.48503399 -0.10317 0.070653901
-0.490982 -0.068795897 0.070653901
-0.49458101 -0.0344222 0.070653901
-0.495772 -4.8459999e-05 0.070653901
0.034376699 -0.49464801 0.070653901
0.068750396 -0.49102199 0.070653901
0.103124 -0.485102 0.070653901
0.121082 -0.48128101 0.070653901
0.13749801 -0.477202 0.070653901
0.171872 -0.46557301 0.070653901
0.20624501 -0.450964 0.070653901
0.215795 -0.44690701 0.070653901
0.240619 -0.43427101 0.070653901
0.274993 -0.41296199 0.070653901
0.27567801 -0.41253299 0.070653901
0.309367 -0.38729101 0.070653901
0.32077399 -0.37815899 0.070653901
0.34373999 -0.35739601 0.070653901
0.35733101 -0.343786 0.070653901
0.37811401 -0.32080999 0.070653901
0.387218 -0.309412 0.070653901
0.41248801 -0.27563801 0.070653901
0.41286299 -0.275038 0.070653901
0.43417501 -0.240665 0.070653901
0.446861 -0.215895 0.070653901
0.45090801 -0.20629101 0.070653901
0.465388 -0.17191701 0.070653901
0.47693199 -0.13754299 0.070653901
0.481235 -0.120066 0.070653901
0.48479301 -0.10317 0.070653901
0.49072 -0.068795897 0.070653901
0.49427199 -0.0344222 0.070653901
0.49543601 -4.8459999e-05 0.070653901
-0.494564 0.034325201 0.070653901
-0.490917 0.068699002 0.070653901
-0.48499 0.103073 0.070653901
-0.48122901 0.120963 0.070653901
-0.47713599 0.137446 0.070653901
-0.46551099 0.17182 0.070653901
-0.450894 0.206194 0.070653901
-0.44685501 0.215692 0.070653901
-0.43419099 0.240568 0.070653901
-0.412873 0.274941 0.070653901
-0.41248199 0.275565 0.070653901
-0.38722 0.309315 0.070653901
-0.37810799 0.320723 0.070653901
-0.35735601 0.34368899 0.070653901
-0.343734 0.35729301 0.070653901
-0.32070801 0.37806299 0.070653901
-0.30936101 0.38711599 0.070653901
-0.27556899 0.41243601 0.070653901
-0.27498701 0.412801 0.070653901
-0.240613 0.43408799 0.070653901
-0.215618 0.44681001 0.070653901
-0.206239 0.45079499 0.070653901
-0.171866 0.46534899 0.070653901
-0.137492 0.47686401 0.070653901
-0.119772 0.48118401 0.070653901
-0.103118 0.484678 0.070653901
-0.068744503 0.49062201 0.070653901
-0.034370702 0.49423099 0.070653901
2.9800001e-06 0.49537 0.070653901
0.49425399 0.034325201 0.070653901
0.490648 0.068699002 0.070653901
0.481235 0.120123 0.070653901
0.476971 0.137446 0.070653901
0.48477799 0.103073 0.070653901
0.46538201 0.17182 0.070653901
0.45080999 0.206194 0.070653901
0.446861 0.215514 0.070653901
0.43413001 0.240568 0.070653901
0.41281101 0.274941 0.070653901
0.13749801 0.47687799 0.070653901
0.119855 0.48118401 0.070653901
0.034376699 0.494223 0.070653901
0.068750396 0.490632 0.070653901
0.103124 0.484694 0.070653901
0.171872 0.46535999 0.070653901
0.20624501 0.45077801 0.070653901
0.240619 0.434073 0.070653901
0.215555 0.44681001 0.070653901
0.274993 0.41275299 0.070653901
0.41248801 0.27545401 0.070653901
0.387137 0.309315 0.070653901
0.37811401 0.32064199 0.070653901
0.357362 0.34368899 0.070653901
0.34373999 0.357297 0.070653901
0.32064399 0.37806299 0.070653901
0.309367 0.38704199 0.070653901
0.27549601 0.41243601 0.070653901
-0.343734 -0.34883699 0.105028
-0.348782 -0.343786 0.105028
-0.30936101 -0.37983301 0.105028
-0.31148401 -0.37815899 0.105028
-0.27498701 -0.40612501 0.105028
-0.37810799 -0.31151101 0.105028
-0.37976399 -0.309412 0.105028
-0.40607399 -0.275038 0.105028
-0.240613 -0.42660701 0.105028
-0.26482201 -0.41253299 0.105028
-0.206239 -0.444938 0.105028
-0.171866 -0.45860499 0.105028
-0.20153099 -0.44690701 0.105028
-0.137492 -0.470864 0.105028
-0.068744503 -0.48495999 0.105028
-0.092890397 -0.48128101 0.105028
-0.034370702 -0.488502 0.105028
2.9800001e-06 -0.48972601 0.105028
-0.103118 -0.47939399 0.105028
-0.41248199 -0.26484799 0.105028
-0.42653701 -0.240665 0.105028
-0.444886 -0.20629101 0.105028
-0.44685501 -0.20158499 0.105028
-0.458543 -0.17191701 0.105028
-0.47077399 -0.13754299 0.105028
-0.48122901 -0.092922799 0.105028
-0.484907 -0.068795897 0.105028
-0.47933501 -0.10317 0.105028
-0.48843601 -0.0344222 0.105028
-0.489654 -4.8459999e-05 0.105028
0.034376699 -0.48849899 0.105028
0.068750396 -0.48495299 0.105028
0.092845701 -0.48128101 0.105028
0.103124 -0.47939 0.105028
0.13749801 -0.47086999 0.105028
0.171872 -0.45859301 0.105028
0.20149601 -0.44690701 0.105028
0.20624501 -0.444922 0.105028
0.240619 -0.426626 0.105028
0.264869 -0.41253299 0.105028
0.274993 -0.40612799 0.105028
0.309367 -0.37977499 0.105028
0.31141201 -0.37815899 0.105028
0.34373999 -0.34878299 0.105028
0.348737 -0.343786 0.105028
0.37811401 -0.31147701 0.105028
0.37974501 -0.309412 0.105028
0.406048 -0.275038 0.105028
0.41248801 -0.264788 0.105028
0.42648599 -0.240665 0.105028
0.444819 -0.20629101 0.105028
0.446861 -0.201387 0.105028
0.45842099 -0.17191701 0.105028
0.470617 -0.13754299 0.105028
0.47914901 -0.10317 0.105028
0.481235 -0.091756001 0.105028
0.48470101 -0.068795897 0.105028
0.48819101 -0.0344222 0.105028
0.48938701 -4.8459999e-05 0.105028
-0.48843899 0.034325201 0.105028
-0.48484799 0.068699002 0.105028
-0.48122901 0.092350803 0.105028
-0.47927499 0.103073 0.105028
-0.470779 0.137446 0.105028
-0.45854601 0.17182 0.105028
-0.44685501 0.201442 0.105028
-0.44486701 0.206194 0.105028
-0.42654601 0.240568 0.105028
-0.41248199 0.26474199 0.105028
-0.406023 0.274941 0.105028
-0.37968799 0.309315 0.105028
-0.37810799 0.31131801 0.105028
-0.34866399 0.34368899 0.105028
-0.343734 0.34861299 0.105028
-0.31136599 0.37806299 0.105028
-0.30936101 0.37965101 0.105028
-0.27498701 0.405974 0.105028
-0.26470101 0.41243601 0.105028
-0.240613 0.42641199 0.105028
-0.206239 0.44474 0.105028
-0.201298 0.44681001 0.105028
-0.171866 0.458354 0.105028
-0.137492 0.47051999 0.105028
-0.103118 0.47903299 0.105028
-0.091410801 0.48118401 0.105028
-0.068744503 0.48462701 0.105028
-0.034370702 0.48814601 0.105028
2.9800001e-06 0.48932999 0.105028
0.48818901 0.034325201 0.105028
0.48463401 0.068699002 0.105028
0.481235 0.091237098 0.105028
0.47911099 0.103073 0.105028
0.47063801 0.137446 0.105028
0.41248801 0.264651 0.105028
0.405974 0.274941 0.105028
0.458437 0.17182 0.105028
0.446861 0.201215 0.105028
0.444785 0.206194 0.105028
0.42647201 0.240568 0.105028
0.274993 0.405931 0.105028
0.264691 0.41243601 0.105028
0.103124 0.47903401 0.105028
0.091434397 0.48118401 0.105028
0.13749801 0.47053799 0.105028
0.034376699 0.48814401 0.105028
0.068750396 0.48463601 0.105028
0.20624501 0.444727 0.105028
0.201294 0.44681001 0.105028
0.171872 0.45837599 0.105028
0.240619 0.42638901 0.105028
0.37965301 0.309315 0.105028
0.37811401 0.31126699 0.105028
0.34865999 0.34368899 0.105028
0.34373999 0.34860599 0.105028
0.31132501 0.37806299 0.105028
0.309367 0.37960801 0.105028
-0.27498701 -0.41253299 0.073637001
-0.41248199 -0.275038 0.073511697
-0.206239 -0.44690701 0.095323198
-0.103118 -0.48128101 0.095113903
-0.44685501 -0.20629101 0.095349297
-0.48122901 -0.10317 0.095061101
0.103124 -0.48128101 0.095084697
0.20624501 -0.44690701 0.095243201
0.274993 -0.41253299 0.073508203
0.41248801 -0.275038 0.073174499
0.446861 -0.20629101 0.094984204
0.481235 -0.10317 0.093889602
-0.48122901 0.103073 0.094756097
-0.44685501 0.206194 0.095186703
-0.41248199 0.274941 0.073242597
-0.27498701 0.41243601 0.073091097
-0.206239 0.44681001 0.094835497
-0.103118 0.48118401 0.093529902
0.481235 0.103073 0.093738303
0.41248801 0.274941 0.072796799
0.446861 0.206194 0.094741002
0.274993 0.41243601 0.072778299
0.103124 0.48118401 0.093559198
0.20624501 0.44681001 0.094758198
-0.27498701 -0.39516899 0.139401
-0.29830801 -0.37815899 0.139401
-0.30936101 -0.369405 0.139401
-0.33744699 -0.343786 0.139401
-0.343734 -0.337477 0.139401
-0.36930099 -0.309412 0.139401
-0.37810799 -0.29830599 0.139401
-0.39506501 -0.275038 0.139401
-0.240613 -0.41668999 0.139401
-0.248276 -0.41253299 0.139401
-0.206239 -0.43555301 0.139401
-0.171866 -0.44966301 0.139401
-0.179711 -0.44690701 0.139401
-0.137492 -0.46131799 0.139401
2.9800001e-06 -0.481612 0.139401
-0.0186194 -0.48128101 0.139401
-0.103118 -0.47082299 0.139401
-0.068744503 -0.47705001 0.139401
-0.034370702 -0.48048699 0.139401
-0.41248199 -0.24825899 0.139401
-0.416612 -0.240665 0.139401
-0.435496 -0.20629101 0.139401
-0.44685501 -0.179737 0.139401
-0.44959801 -0.17191701 0.139401
-0.46123299 -0.13754299 0.139401
-0.47077 -0.10317 0.139401
-0.477005 -0.068795897 0.139401
-0.48122901 -0.0176726 0.139401
-0.481527 -4.8459999e-05 0.139401
-0.48042899 -0.0344222 0.139401
0.0188311 -0.48128101 0.139401
0.034376699 -0.48049301 0.139401
0.068750396 -0.47704601 0.139401
0.103124 -0.47081101 0.139401
0.13749801 -0.46130499 0.139401
0.171872 -0.44965801 0.139401
0.17970701 -0.44690701 0.139401
0.20624501 -0.43555301 0.139401
0.240619 -0.41670901 0.139401
0.24832 -0.41253299 0.139401
0.274993 -0.39516801 0.139401
0.29828301 -0.37815899 0.139401
0.309367 -0.36934099 0.139401
0.33737299 -0.343786 0.139401
0.34373999 -0.33743 0.139401
0.36930099 -0.309412 0.139401
0.37811401 -0.298305 0.139401
0.39507201 -0.275038 0.139401
0.41248801 -0.248216 0.139401
0.41658199 -0.240665 0.139401
0.435422 -0.20629101 0.139401
0.446861 -0.17950501 0.139401
0.44951099 -0.17191701 0.139401
0.46109799 -0.13754299 0.139401
0.47061601 -0.10317 0.139401
0.47684601 -0.068795897 0.139401
0.48025599 -0.0344222 0.139401
0.481235 -0.0102025 0.139401
0.481336 -4.8459999e-05 0.139401
-0.48122901 0.018384101 0.139401
-0.480441 0.034325201 0.139401
-0.47696099 0.068699002 0.139401
-0.470696 0.103073 0.139401
-0.46119401 0.137446 0.139401
-0.449599 0.17182 0.139401
-0.44685501 0.179663 0.139401
-0.43549299 0.206194 0.139401
-0.41661301 0.240568 0.139401
-0.41248199 0.248174 0.139401
-0.395069 0.274941 0.139401
-0.37810799 0.29818401 0.139401
-0.369243 0.309315 0.139401
-0.343734 0.33728299 0.139401
-0.337327 0.34368899 0.139401
-0.30936101 0.36918399 0.139401
-0.298224 0.37806299 0.139401
-0.27498701 0.39500201 0.139401
-0.248099 0.41243601 0.139401
-0.240613 0.41648701 0.139401
-0.206239 0.435323 0.139401
