# .PCD v0.7 - Point Cloud Data file format
VERSION 0.7
FIELDS x y z
SIZE 4 4 4
TYPE F F F
COUNT 1 1 1
WIDTH 1492
HEIGHT 1
VIEWPOINT 0 0 0 1 0 0 0
POINTS 1492
DATA ascii
-0.46960399 0.103073 -0.13558801
-0.46043801 0.137446 -0.13558801
-0.44935399 0.17182 -0.13558801
-0.44685501 0.178442 -0.13558801
-0.43408701 0.206194 -0.13558801
-0.41653901 0.240568 -0.13558801
-0.41248199 0.247573 -0.13558801
-0.39392099 0.274941 -0.13558801
-0.37810799 0.29747099 -0.13558801
-0.368321 0.309315 -0.13558801
-0.343734 0.33678901 -0.13558801
-0.33683199 0.34368899 -0.13558801
-0.30936101 0.36818701 -0.13558801
-0.29744601 0.37806299 -0.13558801
-0.27498701 0.39390799 -0.13558801
-0.24765401 0.41243601 -0.13558801
-0.240613 0.41657001 -0.13558801
-0.206239 0.43411499 -0.13558801
-0.178194 0.44681001 -0.13558801
-0.171866 0.44921601 -0.13558801
-0.137492 0.46035999 -0.13558801
-0.103118 0.469522 -0.13558801
-0.068744503 0.47622299 -0.13558801
-0.034370702 0.47992301 -0.13558801
-0.0032734899 0.48118401 -0.13558801
2.9800001e-06 0.48122799 -0.13558801
0.48002499 0.034325201 -0.13558801
0.47624299 0.068699002 -0.13558801
0.46959299 0.103073 -0.13558801
0.46044201 0.137446 -0.13558801
0.41248801 0.24748001 -0.13558801
0.39397499 0.274941 -0.13558801
0.44936401 0.17182 -0.13558801
0.446861 0.178427 -0.13558801
0.434165 0.206194 -0.13558801
0.41652101 0.240568 -0.13558801
0.274993 0.39390701 -0.13558801
0.24766999 0.41243601 -0.13558801
0.034376699 0.48005801 -0.13558801
0.0115919 0.48118401 -0.13558801
0.068750396 0.47617501 -0.13558801
0.103124 0.469529 -0.13558801
0.13749801 0.46038401 -0.13558801
0.20624501 0.43420801 -0.13558801
0.17813601 0.44681001 -0.13558801
0.171872 0.449164 -0.13558801
0.240619 0.41654301 -0.13558801
0.34373999 0.33673701 -0.13558801
0.33679599 0.34368899 -0.13558801
0.37811401 0.29751599 -0.13558801
0.36835 0.309315 -0.13558801
0.309367 0.368285 -0.13558801
0.29751 0.37806299 -0.13558801
-0.240613 -0.41253299 -0.148013
-0.171866 -0.44690701 -0.14391699
2.9800001e-06 -0.48128101 -0.13575201
-0.41248199 -0.240665 -0.148146
-0.44685501 -0.17191701 -0.14380901
0.171872 -0.44690701 -0.143866
0.240619 -0.41253299 -0.14789701
0.41248801 -0.240665 -0.14810701
0.446861 -0.17191701 -0.143843
-0.44685501 0.17182 -0.14379001
-0.41248199 0.240568 -0.14786001
-0.240613 0.41243601 -0.148157
-0.171866 0.44681001 -0.143592
2.9800001e-06 0.48118401 -0.135747
0.41248801 0.240568 -0.147884
0.446861 0.17182 -0.143773
0.240619 0.41243601 -0.148167
0.171872 0.44681001 -0.1434
-0.343734 -0.34873 -0.101215
-0.34870401 -0.343786 -0.101215
-0.30936101 -0.37970999 -0.101215
-0.31123701 -0.37815899 -0.101215
-0.27498701 -0.40521801 -0.101215
-0.37810799 -0.31111699 -0.101215
-0.37952399 -0.309412 -0.101215
-0.40510899 -0.275038 -0.101215
-0.240613 -0.42581499 -0.101215
-0.264171 -0.41253299 -0.101215
-0.206239 -0.444547 -0.101215
-0.171866 -0.45801699 -0.101215
-0.200931 -0.44690701 -0.101215
-0.137492 -0.469767 -0.101215
-0.068744503 -0.484853 -0.101215
-0.091134302 -0.48128101 -0.101215
-0.034370702 -0.488426 -0.101215
2.9800001e-06 -0.48948601 -0.101215
-0.103118 -0.47890499 -0.101215
-0.41248199 -0.26406699 -0.101215
-0.42583501 -0.240665 -0.101215
-0.44438401 -0.20629101 -0.101215
-0.44685501 -0.200699 -0.101215
-0.457959 -0.17191701 -0.101215
-0.46972099 -0.13754299 -0.101215
-0.48122901 -0.0906277 -0.101215
-0.484786 -0.068795897 -0.101215
-0.478791 -0.10317 -0.101215
-0.48837301 -0.0344222 -0.101215
-0.489429 -4.8459999e-05 -0.101215
0.034376699 -0.488381 -0.101215
0.068750396 -0.48480901 -0.101215
0.091233797 -0.48128101 -0.101215
0.103124 -0.47892299 -0.101215
0.13749801 -0.469733 -0.101215
0.171872 -0.45806101 -0.101215
0.20085301 -0.44690701 -0.101215
0.20624501 -0.44449899 -0.101215
0.240619 -0.425834 -0.101215
0.26419401 -0.41253299 -0.101215
0.274993 -0.40520099 -0.101215
0.309367 -0.379724 -0.101215
0.31127101 -0.37815899 -0.101215
0.34373999 -0.348672 -0.101215
0.34865201 -0.343786 -0.101215
0.37811401 -0.311093 -0.101215
0.37950701 -0.309412 -0.101215
0.405065 -0.275038 -0.101215
0.41248801 -0.26402101 -0.101215
0.42584601 -0.240665 -0.101215
0.444352 -0.20629101 -0.101215
0.446861 -0.20066801 -0.101215
0.45801499 -0.17191701 -0.101215
0.46969 -0.13754299 -0.101215
0.47879699 -0.10317 -0.101215
0.481235 -0.0908323 -0.101215
0.48470899 -0.068795897 -0.101215
0.48836401 -0.0344222 -0.101215
0.489537 -4.8459999e-05 -0.101215
-0.48829001 0.034325201 -0.101215
-0.484786 0.068699002 -0.101215
-0.48122901 0.091255099 -0.101215
-0.47882301 0.103073 -0.101215
-0.469704 0.137446 -0.101215
-0.45802 0.17182 -0.101215
-0.44685501 0.200765 -0.101215
-0.44440699 0.206194 -0.101215
-0.425749 0.240568 -0.101215
-0.41248199 0.26410601 -0.101215
-0.405128 0.274941 -0.101215
-0.37957701 0.309315 -0.101215
-0.37810799 0.311088 -0.101215
-0.34874099 0.34368899 -0.101215
-0.343734 0.34871599 -0.101215
-0.31114799 0.37806299 -0.101215
-0.30936101 0.37955299 -0.101215
-0.27498701 0.40497601 -0.101215
-0.263951 0.41243601 -0.101215
-0.240613 0.425731 -0.101215
-0.206239 0.44431999 -0.101215
-0.200707 0.44681001 -0.101215
-0.171866 0.45797199 -0.101215
-0.137492 0.469643 -0.101215
-0.103118 0.47873899 -0.101215
-0.090783902 0.48118401 -0.101215
-0.068744503 0.484658 -0.101215
-0.034370702 0.48819301 -0.101215
2.9800001e-06 0.489452 -0.101215
0.488276 0.034325201 -0.101215
0.48472399 0.068699002 -0.101215
0.481235 0.0907837 -0.101215
0.47886601 0.103073 -0.101215
0.46978801 0.137446 -0.101215
0.41248801 0.26412901 -0.101215
0.40511101 0.274941 -0.101215
0.45797899 0.17182 -0.101215
0.446861 0.20088901 -0.101215
0.444469 0.206194 -0.101215
0.42574 0.240568 -0.101215
0.274993 0.40496701 -0.101215
0.26395699 0.41243601 -0.101215
0.103124 0.47875601 -0.101215
0.090799101 0.48118401 -0.101215
0.13749801 0.46964899 -0.101215
0.034376699 0.48826501 -0.101215
0.068750396 0.484602 -0.101215
0.20624501 0.44438601 -0.101215
0.20086899 0.44681001 -0.101215
0.171872 0.45796299 -0.101215
0.240619 0.42568099 -0.101215
0.37956399 0.309315 -0.101215
0.37811401 0.311068 -0.101215
0.34868699 0.34368899 -0.101215
0.34373999 0.34865299 -0.101215
0.31110001 0.37806299 -0.101215
0.309367 0.379504 -0.101215
-0.343734 -0.343786 -0.117553
-0.30936101 -0.37815899 -0.106851
-0.37810799 -0.309412 -0.106432
-0.068744503 -0.48128101 -0.116969
-0.034370702 -0.48128101 -0.131154
-0.48122901 -0.068795897 -0.116949
-0.48122901 -0.0344222 -0.131512
-0.48122901 -4.8459999e-05 -0.13536
0.034376699 -0.48128101 -0.131202
0.068750396 -0.48128101 -0.116856
0.309367 -0.37815899 -0.107108
0.34373999 -0.343786 -0.117218
0.37811401 -0.309412 -0.106341
0.481235 -0.068795897 -0.116771
0.481235 -0.0344222 -0.131421
0.481235 -4.8459999e-05 -0.13533799
-0.48122901 0.034325201 -0.13126799
-0.48122901 0.068699002 -0.116723
-0.37810799 0.309315 -0.106689
-0.343734 0.34368899 -0.117843
-0.30936101 0.37806299 -0.106701
-0.068744503 0.48118401 -0.116466
-0.034370702 0.48118401 -0.13103899
0.481235 0.034325201 -0.131246
0.481235 0.068699002 -0.116468
0.034376699 0.48118401 -0.13150799
0.068750396 0.48118401 -0.116236
0.34373999 0.34368899 -0.117564
0.37811401 0.309315 -0.106642
0.309367 0.37806299 -0.10659
-0.27498701 -0.412844 -0.066840999
-0.27544999 -0.41253299 -0.066840999
-0.41248199 -0.27544001 -0.066840999
-0.41275001 -0.275038 -0.066840999
-0.343734 -0.35669801 -0.066840999
-0.35663399 -0.343786 -0.066840999
-0.30936101 -0.38690901 -0.066840999
-0.32018599 -0.37815899 -0.066840999
-0.37810799 -0.320115 -0.066840999
-0.38679799 -0.309412 -0.066840999
-0.206239 -0.450928 -0.066840999
-0.21496201 -0.44690701 -0.066840999
-0.240613 -0.43259901 -0.066840999
-0.171866 -0.464333 -0.066840999
-0.137492 -0.476374 -0.066840999
-0.103118 -0.48488 -0.066840999
-0.119246 -0.48128101 -0.066840999
-0.068744503 -0.49084699 -0.066840999
-0.034370702 -0.49456999 -0.066840999
2.9800001e-06 -0.49559799 -0.066840999
-0.43265501 -0.240665 -0.066840999
-0.44685501 -0.21482 -0.066840999
-0.450773 -0.20629101 -0.066840999
-0.46430799 -0.17191701 -0.066840999
-0.47634399 -0.13754299 -0.066840999
-0.48122901 -0.119162 -0.066840999
-0.48480299 -0.10317 -0.066840999
-0.490724 -0.068795897 -0.066840999
-0.49445999 -0.0344222 -0.066840999
-0.495655 -4.8459999e-05 -0.066840999
0.034376699 -0.49457201 -0.066840999
0.068750396 -0.49085 -0.066840999
0.103124 -0.48488 -0.066840999
0.119275 -0.48128101 -0.066840999
0.13749801 -0.47637999 -0.066840999
0.171872 -0.46437699 -0.066840999
0.20624501 -0.45086199 -0.066840999
0.214798 -0.44690701 -0.066840999
0.240619 -0.43265599 -0.066840999
0.274993 -0.41283801 -0.066840999
0.275446 -0.41253299 -0.066840999
0.309367 -0.386861 -0.066840999
0.32013601 -0.37815899 -0.066840999
0.34373999 -0.3567 -0.066840999
0.35663101 -0.343786 -0.066840999
0.37811401 -0.32010299 -0.066840999
0.38681599 -0.309412 -0.066840999
0.41248801 -0.275352 -0.066840999
0.41269699 -0.275038 -0.066840999
0.43266901 -0.240665 -0.066840999
0.446861 -0.21472 -0.066840999
0.45077899 -0.20629101 -0.066840999
0.46438199 -0.17191701 -0.066840999
0.476309 -0.13754299 -0.066840999
0.481235 -0.118858 -0.066840999
0.48478201 -0.10317 -0.066840999
0.49068299 -0.068795897 -0.066840999
0.49446601 -0.0344222 -0.066840999
0.49572101 -4.8459999e-05 -0.066840999
-0.49433199 0.034325201 -0.066840999
-0.49080101 0.068699002 -0.066840999
-0.484826 0.103073 -0.066840999
-0.48122901 0.118791 -0.066840999
-0.47629401 0.137446 -0.066840999
-0.46430701 0.17182 -0.066840999
-0.45077801 0.206194 -0.066840999
-0.44685501 0.21462101 -0.066840999
-0.43257999 0.240568 -0.066840999
-0.41286001 0.274941 -0.066840999
-0.41248199 0.2755 -0.066840999
-0.38673699 0.309315 -0.066840999
-0.37810799 0.32010299 -0.066840999
-0.35663199 0.34368899 -0.066840999
-0.343734 0.356574 -0.066840999
-0.32010099 0.37806299 -0.066840999
-0.30936101 0.38673201 -0.066840999
-0.275305 0.41243601 -0.066840999
-0.27498701 0.412653 -0.066840999
-0.240613 0.432648 -0.066840999
-0.214505 0.44681001 -0.066840999
-0.206239 0.45069301 -0.066840999
-0.171866 0.46442801 -0.066840999
-0.137492 0.47620401 -0.066840999
-0.1189 0.48118401 -0.066840999
-0.103118 0.484777 -0.066840999
-0.068744503 0.49066699 -0.066840999
-0.034370702 0.49428901 -0.066840999
2.9800001e-06 0.49562499 -0.066840999
0.49430799 0.034325201 -0.066840999
0.49080199 0.068699002 -0.066840999
0.481235 0.119043 -0.066840999
0.476322 0.137446 -0.066840999
0.48485699 0.103073 -0.066840999
0.46428001 0.17182 -0.066840999
0.450804 0.206194 -0.066840999
0.446861 0.214608 -0.066840999
0.432601 0.240568 -0.066840999
0.412797 0.274941 -0.066840999
0.13749801 0.476217 -0.066840999
0.11908 0.48118401 -0.066840999
0.034376699 0.494416 -0.066840999
0.068750396 0.49061999 -0.066840999
0.103124 0.484795 -0.066840999
0.171872 0.464394 -0.066840999
0.20624501 0.450681 -0.066840999
0.240619 0.43267599 -0.066840999
0.214505 0.44681001 -0.066840999
0.274993 0.41263199 -0.066840999
0.41248801 0.27539399 -0.066840999
0.386749 0.309315 -0.066840999
0.37811401 0.32009199 -0.066840999
0.35663199 0.34368899 -0.066840999
0.34373999 0.35659 -0.066840999
0.32007599 0.37806299 -0.066840999
0.309367 0.38670701 -0.066840999
0.27528 0.41243601 -0.066840999
-0.27498701 -0.41253299 -0.068840399
-0.41248199 -0.275038 -0.068475097
-0.206239 -0.44690701 -0.090896398
-0.103118 -0.48128101 -0.0897137
-0.44685501 -0.20629101 -0.090263799
-0.48122901 -0.10317 -0.089468397
0.103124 -0.48128101 -0.089802802
0.20624501 -0.44690701 -0.090606302
0.274993 -0.41253299 -0.068827599
0.41248801 -0.275038 -0.068121001
0.446861 -0.20629101 -0.090274997
0.481235 -0.10317 -0.089336999
-0.48122901 0.103073 -0.089678399
-0.44685501 0.206194 -0.090476103
-0.41248199 0.274941 -0.069266602
-0.27498701 0.41243601 -0.068186402
-0.206239 0.44681001 -0.090238802
-0.103118 0.48118401 -0.089409798
0.481235 0.103073 -0.0899221
0.41248801 0.274941 -0.068855703
0.446861 0.206194 -0.0906865
0.274993 0.41243601 -0.068065599
0.103124 0.48118401 -0.089599602
0.20624501 0.44681001 -0.090380199
-0.27498701 -0.41674799 -0.032467201
-0.281288 -0.41253299 -0.032467201
-0.41248199 -0.281618 -0.032467201
-0.416832 -0.275038 -0.032467201
-0.343734 -0.36149999 -0.032467201
-0.36153799 -0.343786 -0.032467201
-0.30936101 -0.39109701 -0.032467201
-0.325481 -0.37815899 -0.032467201
-0.37810799 -0.325542 -0.032467201
-0.39100301 -0.309412 -0.032467201
-0.206239 -0.45440099 -0.032467201
-0.222388 -0.44690701 -0.032467201
-0.240613 -0.43691301 -0.032467201
-0.171866 -0.46813101 -0.032467201
-0.137492 -0.480073 -0.032467201
-0.103118 -0.48827699 -0.032467201
-0.133145 -0.48128101 -0.032467201
-0.068744503 -0.49436301 -0.032467201
-0.034370702 -0.498027 -0.032467201
2.9800001e-06 -0.499033 -0.032467201
-0.43700999 -0.240665 -0.032467201
-0.44685501 -0.222453 -0.032467201
-0.45430699 -0.20629101 -0.032467201
-0.46823499 -0.17191701 -0.032467201
-0.47999799 -0.13754299 -0.032467201
-0.48122901 -0.133059 -0.032467201
-0.48821199 -0.10317 -0.032467201
-0.49418601 -0.068795897 -0.032467201
-0.49794301 -0.0344222 -0.032467201
-0.49915799 -4.8459999e-05 -0.032467201
0.034376699 -0.49802899 -0.032467201
0.068750396 -0.49436301 -0.032467201
0.103124 -0.488231 -0.032467201
0.133108 -0.48128101 -0.032467201
0.13749801 -0.48006701 -0.032467201
0.171872 -0.46817401 -0.032467201
0.20624501 -0.454355 -0.032467201
0.22231799 -0.44690701 -0.032467201
0.240619 -0.436993 -0.032467201
0.274993 -0.416695 -0.032467201
0.281214 -0.41253299 -0.032467201
0.309367 -0.391087 -0.032467201
0.32546401 -0.37815899 -0.032467201
0.34373999 -0.36151999 -0.032467201
0.36150801 -0.343786 -0.032467201
0.37811401 -0.32550699 -0.032467201
0.391047 -0.309412 -0.032467201
0.41248801 -0.28133899 -0.032467201
0.41666499 -0.275038 -0.032467201
0.43702701 -0.240665 -0.032467201
0.446861 -0.22235499 -0.032467201
0.45428801 -0.20629101 -0.032467201
0.46824899 -0.17191701 -0.032467201
0.480005 -0.13754299 -0.032467201
0.481235 -0.13311 -0.032467201
0.48823899 -0.10317 -0.032467201
0.49419001 -0.068795897 -0.032467201
0.497949 -0.0344222 -0.032467201
0.49914399 -4.8459999e-05 -0.032467201
-0.49779499 0.034325201 -0.032467201
-0.49430299 0.068699002 -0.032467201
-0.48823601 0.103073 -0.032467201
-0.48122901 0.132952 -0.032467201
-0.479983 0.137446 -0.032467201
-0.46807599 0.17182 -0.032467201
-0.45430601 0.206194 -0.032467201
-0.44685501 0.222168 -0.032467201
-0.43694201 0.240568 -0.032467201
-0.416639 0.274941 -0.032467201
-0.41248199 0.28112799 -0.032467201
-0.391049 0.309315 -0.032467201
-0.37810799 0.32540801 -0.032467201
-0.36145699 0.34368899 -0.032467201
-0.343734 0.36139601 -0.032467201
-0.325441 0.37806299 -0.032467201
-0.30936101 0.39098999 -0.032467201
-0.28111801 0.41243601 -0.032467201
-0.27498701 0.416567 -0.032467201
-0.240613 0.43699199 -0.032467201
-0.22224499 0.44681001 -0.032467201
-0.206239 0.454207 -0.032467201
-0.171866 0.468088 -0.032467201
-0.137492 0.47985101 -0.032467201
-0.13291401 0.48118401 -0.032467201
-0.103118 0.488253 -0.032467201
-0.068744503 0.494111 -0.032467201
-0.034370702 0.497778 -0.032467201
2.9800001e-06 0.49904701 -0.032467201
0.497803 0.034325201 -0.032467201
0.49430701 0.068699002 -0.032467201
0.481235 0.13283899 -0.032467201
0.47995901 0.137446 -0.032467201
0.48823699 0.103073 -0.032467201
0.46809199 0.17182 -0.032467201
0.454308 0.206194 -0.032467201
0.446861 0.222133 -0.032467201
0.436955 0.240568 -0.032467201
0.416592 0.274941 -0.032467201
0.13749801 0.47986299 -0.032467201
0.13297001 0.48118401 -0.032467201
0.034376699 0.49788401 -0.032467201
0.068750396 0.49406499 -0.032467201
0.103124 0.48822001 -0.032467201
0.171872 0.46806899 -0.032467201
0.20624501 0.45417601 -0.032467201
0.240619 0.43705401 -0.032467201
0.222256 0.44681001 -0.032467201
0.274993 0.41653299 -0.032467201
0.41248801 0.28103799 -0.032467201
0.391045 0.309315 -0.032467201
0.37811401 0.32539999 -0.032467201
0.36144599 0.34368899 -0.032467201
0.34373999 0.36141899 -0.032467201
0.32539001 0.37806299 -0.032467201
0.309367 0.39092699 -0.032467201
0.28110999 0.41243601 -0.032467201
-0.27498701 -0.41820899 0.00190645
-0.28345999 -0.41253299 0.00190645
-0.41248199 -0.28363499 0.00190645
-0.418185 -0.275038 0.00190645
-0.343734 -0.36326301 0.00190645
-0.363446 -0.343786 0.00190645
-0.30936101 -0.39265999 0.00190645
-0.32757899 -0.37815899 0.00190645
-0.37810799 -0.32772201 0.00190645
-0.39249301 -0.309412 0.00190645
-0.137492 -0.48145801 0.00190645
-0.138129 -0.48128101 0.00190645
-0.206239 -0.455713 0.00190645
-0.22530399 -0.44690701 0.00190645
-0.240613 -0.43861201 0.00190645
-0.171866 -0.46965399 0.00190645
-0.103118 -0.48954001 0.00190645
-0.068744503 -0.49576601 0.00190645
-0.034370702 -0.49940801 0.00190645
2.9800001e-06 -0.50041997 0.00190645
-0.43891299 -0.240665 0.00190645
-0.44685501 -0.22577301 0.00190645
-0.45558399 -0.20629101 0.00190645
-0.48122901 -0.13810501 0.00190645
-0.48138499 -0.13754299 0.00190645
-0.469731 -0.17191701 0.00190645
-0.48953399 -0.10317 0.00190645
-0.495572 -0.068795897 0.00190645
-0.49932301 -0.0344222 0.00190645
-0.50053197 -4.8459999e-05 0.00190645
0.034376699 -0.49939999 0.00190645
0.068750396 -0.49577701 0.00190645
0.103124 -0.48953301 0.00190645
0.13749801 -0.481442 0.00190645
0.138081 -0.48128101 0.00190645
0.171872 -0.46965 0.00190645
0.20624501 -0.45571101 0.00190645
0.225281 -0.44690701 0.00190645
0.240619 -0.43862599 0.00190645
0.274993 -0.41817001 0.00190645
0.28339201 -0.41253299 0.00190645
0.309367 -0.39265999 0.00190645
0.327555 -0.37815899 0.00190645
0.34373999 -0.36330101 0.00190645
0.36340699 -0.343786 0.00190645
0.37811401 -0.32763499 0.00190645
0.39256701 -0.309412 0.00190645
0.41248801 -0.283364 0.00190645
0.418037 -0.275038 0.00190645
0.43890899 -0.240665 0.00190645
0.446861 -0.22566301 0.00190645
0.45559201 -0.20629101 0.00190645
0.46972701 -0.17191701 0.00190645
0.481235 -0.13805699 0.00190645
0.481379 -0.13754299 0.00190645
0.489573 -0.10317 0.00190645
0.49555799 -0.068795897 0.00190645
0.49932799 -0.0344222 0.00190645
0.50053501 -4.8459999e-05 0.00190645
-0.49914399 0.034325201 0.00190645
-0.49572101 0.068699002 0.00190645
-0.489557 0.103073 0.00190645
-0.48134699 0.137446 0.00190645
-0.48122901 0.137869 0.00190645
-0.46955299 0.17182 0.00190645
-0.455639 0.206194 0.00190645
-0.44685501 0.225107 0.00190645
-0.43859699 0.240568 0.00190645
-0.41795799 0.274941 0.00190645
-0.41248199 0.28321201 0.00190645
-0.392768 0.309315 0.00190645
-0.37810799 0.32736501 0.00190645
-0.36325899 0.34368899 0.00190645
-0.343734 0.363226 0.00190645
-0.32739601 0.37806299 0.00190645
-0.30936101 0.39258501 0.00190645
-0.28330001 0.41243601 0.00190645
-0.27498701 0.41796201 0.00190645
-0.240613 0.438766 0.00190645
-0.22543301 0.44681001 0.00190645
-0.206239 0.455538 0.00190645
-0.171866 0.46956199 0.00190645
-0.13755 0.48118401 0.00190645
-0.137492 0.48120099 0.00190645
-0.103118 0.48956999 0.00190645
-0.068744503 0.495518 0.00190645
-0.034370702 0.499138 0.00190645
2.9800001e-06 0.500449 0.00190645
0.499145 0.034325201 0.00190645
0.49572101 0.068699002 0.00190645
0.48956901 0.103073 0.00190645
0.481345 0.137446 0.00190645
0.481235 0.13783801 0.00190645
0.46955401 0.17182 0.00190645
0.45564601 0.206194 0.00190645
0.446861 0.225104 0.00190645
0.43861401 0.240568 0.00190645
0.41793501 0.274941 0.00190645
0.034376699 0.499264 0.00190645
0.068750396 0.49548599 0.00190645
0.103124 0.489557 0.00190645
0.13749801 0.481233 0.00190645
0.171872 0.46954799 0.00190645
0.13766401 0.48118401 0.00190645
0.20624501 0.45552701 0.00190645
0.240619 0.438768 0.00190645
0.22542299 0.44681001 0.00190645
0.274993 0.41791299 0.00190645
0.41248801 0.283169 0.00190645
0.39276701 0.309315 0.00190645
0.37811401 0.32734701 0.00190645
0.36326501 0.34368899 0.00190645
0.34373999 0.36322901 0.00190645
0.327382 0.37806299 0.00190645
0.309367 0.39258799 0.00190645
0.28325599 0.41243601 0.00190645
-0.137492 -0.48128101 -0.0084183197
-0.48122901 -0.13754299 -0.0068200799
0.13749801 -0.48128101 -0.0073339902
0.481235 -0.13754299 -0.0062118201
-0.48122901 0.137446 -0.0053539299
-0.137492 0.48118401 0.00045317001
0.481235 0.137446 -0.0049331798
0.13749801 0.48118401 -0.00183618
-0.27498701 -0.41685399 0.0362802
-0.28145799 -0.41253299 0.0362802
-0.41248199 -0.28167599 0.0362802
-0.41686299 -0.275038 0.0362802
-0.343734 -0.361644 0.0362802
-0.36166099 -0.343786 0.0362802
-0.30936101 -0.391186 0.0362802
-0.32564399 -0.37815899 0.0362802
-0.37810799 -0.32569799 0.0362802
-0.39110699 -0.309412 0.0362802
-0.206239 -0.454476 0.0362802
-0.222692 -0.44690701 0.0362802
-0.240613 -0.43715599 0.0362802
-0.171866 -0.46830201 0.0362802
-0.137492 -0.48020899 0.0362802
-0.103118 -0.48837101 0.0362802
-0.133619 -0.48128101 0.0362802
-0.068744503 -0.49452099 0.0362802
-0.034370702 -0.4982 0.0362802
2.9800001e-06 -0.499203 0.0362802
-0.43727699 -0.240665 0.0362802
-0.44685501 -0.222809 0.0362802
-0.45438901 -0.20629101 0.0362802
-0.46838501 -0.17191701 0.0362802
-0.48015499 -0.13754299 0.0362802
-0.48122901 -0.13368499 0.0362802
-0.488361 -0.10317 0.0362802
-0.49432299 -0.068795897 0.0362802
-0.49811599 -0.0344222 0.0362802
-0.49932799 -4.8459999e-05 0.0362802
0.034376699 -0.49820301 0.0362802
0.068750396 -0.49452099 0.0362802
0.103124 -0.48837301 0.0362802
0.13370501 -0.48128101 0.0362802
0.13749801 -0.480223 0.0362802
0.171872 -0.46831399 0.0362802
0.20624501 -0.45446801 0.0362802
0.222637 -0.44690701 0.0362802
0.240619 -0.43716899 0.0362802
0.274993 -0.41681901 0.0362802
0.28139499 -0.41253299 0.0362802
0.309367 -0.39118099 0.0362802
0.32563001 -0.37815899 0.0362802
0.34373999 -0.36165601 0.0362802
0.361664 -0.343786 0.0362802
0.37811401 -0.32565501 0.0362802
0.39111 -0.309412 0.0362802
0.41248801 -0.281616 0.0362802
0.41683999 -0.275038 0.0362802
0.43727401 -0.240665 0.0362802
0.446861 -0.22276001 0.0362802
0.45437101 -0.20629101 0.0362802
0.468398 -0.17191701 0.0362802
0.48015001 -0.13754299 0.0362802
0.481235 -0.133623 0.0362802
0.48836201 -0.10317 0.0362802
0.49433401 -0.068795897 0.0362802
0.49811599 -0.0344222 0.0362802
0.49932101 -4.8459999e-05 0.0362802
-0.49794501 0.034325201 0.0362802
-0.49447399 0.068699002 0.0362802
-0.48835701 0.103073 0.0362802
-0.48122901 0.133541 0.0362802
-0.48015499 0.137446 0.0362802
-0.46821699 0.17182 0.0362802
-0.454409 0.206194 0.0362802
-0.44685501 0.22246499 0.0362802
-0.43713099 0.240568 0.0362802
-0.41668901 0.274941 0.0362802
-0.41248199 0.28121901 0.0362802
-0.39115599 0.309315 0.0362802
-0.37810799 0.32555401 0.0362802
-0.36158699 0.34368899 0.0362802
-0.343734 0.36154601 0.0362802
-0.32556301 0.37806299 0.0362802
-0.30936101 0.39109701 0.0362802
-0.28126401 0.41243601 0.0362802
-0.27498701 0.41662699 0.0362802
-0.240613 0.43721199 0.0362802
-0.222562 0.44681001 0.0362802
-0.206239 0.454303 0.0362802
-0.171866 0.46823499 0.0362802
-0.137492 0.47999001 0.0362802
-0.133396 0.48118401 0.0362802
-0.103118 0.488372 0.0362802
-0.068744503 0.49427399 0.0362802
-0.034370702 0.497933 0.0362802
2.9800001e-06 0.49923301 0.0362802
0.497949 0.034325201 0.0362802
0.49447599 0.068699002 0.0362802
0.481235 0.13345701 0.0362802
0.48013601 0.137446 0.0362802
0.488363 0.103073 0.0362802
0.46823099 0.17182 0.0362802
0.45439899 0.206194 0.0362802
0.446861 0.22241201 0.0362802
0.437141 0.240568 0.0362802
0.416693 0.274941 0.0362802
0.13749801 0.48002601 0.0362802
0.13351101 0.48118401 0.0362802
0.034376699 0.498054 0.0362802
0.068750396 0.49423701 0.0362802
0.103124 0.48835599 0.0362802
0.171872 0.468207 0.0362802
0.20624501 0.454301 0.0362802
0.240619 0.43719301 0.0362802
0.22254001 0.44681001 0.0362802
0.274993 0.416673 0.0362802
0.41248801 0.28122801 0.0362802
0.39117301 0.309315 0.0362802
0.37811401 0.32554001 0.0362802
0.36158299 0.34368899 0.0362802
0.34373999 0.36154699 0.0362802
0.32554901 0.37806299 0.0362802
0.309367 0.391027 0.0362802
0.28131899 0.41243601 0.0362802
-0.137492 -0.48128101 0.0172383
-0.48122901 -0.13754299 0.017514201
0.13749801 -0.48128101 0.017493101
0.481235 -0.13754299 0.017334601
-0.48122901 0.137446 0.016279301
-0.137492 0.48118401 0.0114885
0.481235 0.137446 0.015897799
0.13749801 0.48118401 0.0130918
-0.27498701 -0.412765 0.070653901
-0.27533299 -0.41253299 0.070653901
-0.41248199 -0.27536401 0.070653901
-0.41269699 -0.275038 0.070653901
-0.343734 -0.356599 0.070653901
-0.35653701 -0.343786 0.070653901
-0.30936101 -0.38683099 0.070653901
-0.320043 -0.37815899 0.070653901
-0.37810799 -0.31996599 0.070653901
-0.38671899 -0.309412 0.070653901
-0.206239 -0.450847 0.070653901
-0.21477 -0.44690701 0.070653901
-0.240613 -0.43250501 0.070653901
-0.171866 -0.464248 0.070653901
-0.137492 -0.476311 0.070653901
-0.103118 -0.48479 0.070653901
-0.118928 -0.48128101 0.070653901
-0.068744503 -0.490742 0.070653901
-0.034370702 -0.49442601 0.070653901
2.9800001e-06 -0.49545199 0.070653901
-0.43251899 -0.240665 0.070653901
-0.44685501 -0.21461201 0.070653901
-0.45071101 -0.20629101 0.070653901
-0.464266 -0.17191701 0.070653901
-0.47623599 -0.13754299 0.070653901
-0.48122901 -0.11868 0.070653901
-0.48470601 -0.10317 0.070653901
-0.49059701 -0.068795897 0.070653901
-0.494313 -0.0344222 0.070653901
-0.495538 -4.8459999e-05 0.070653901
0.034376699 -0.49442101 0.070653901
0.068750396 -0.49074101 0.070653901
0.103124 -0.484781 0.070653901
0.118822 -0.48128101 0.070653901
0.13749801 -0.476291 0.070653901
0.171872 -0.46429399 0.070653901
0.20624501 -0.450703 0.070653901
0.214497 -0.44690701 0.070653901
0.240619 -0.43259999 0.070653901
0.274993 -0.41278899 0.070653901
0.27537599 -0.41253299 0.070653901
0.309367 -0.38676599 0.070653901
0.31999999 -0.37815899 0.070653901
0.34373999 -0.35659099 0.070653901
0.356527 -0.343786 0.070653901
0.37811401 -0.31996599 0.070653901
0.38670501 -0.309412 0.070653901
0.41248801 -0.27532899 0.070653901
0.41268 -0.275038 0.070653901
0.43257001 -0.240665 0.070653901
0.446861 -0.214654 0.070653901
0.45070499 -0.20629101 0.070653901
0.464266 -0.17191701 0.070653901
0.47622699 -0.13754299 0.070653901
0.481235 -0.118593 0.070653901
0.48471501 -0.10317 0.070653901
0.490578 -0.068795897 0.070653901
0.49432701 -0.0344222 0.070653901
0.49556601 -4.8459999e-05 0.070653901
-0.49419999 0.034325201 0.070653901
-0.490693 0.068699002 0.070653901
-0.48468801 0.103073 0.070653901
-0.48122901 0.118318 0.070653901
-0.476219 0.137446 0.070653901
-0.46419001 0.17182 0.070653901
-0.45069599 0.206194 0.070653901
-0.44685501 0.214405 0.070653901
-0.43248501 0.240568 0.070653901
-0.41275901 0.274941 0.070653901
-0.41248199 0.27534899 0.070653901
-0.38666901 0.309315 0.070653901
-0.37810799 0.31998199 0.070653901
-0.35660601 0.34368899 0.070653901
-0.343734 0.35652301 0.070653901
-0.32000899 0.37806299 0.070653901
-0.30936101 0.38674799 0.070653901
-0.27498701 0.412422 0.070653901
-0.274966 0.41243601 0.070653901
-0.240613 0.43248299 0.070653901
-0.214396 0.44681001 0.070653901
-0.206239 0.45067799 0.070653901
-0.171866 0.46424401 0.070653901
-0.137492 0.47615799 0.070653901
-0.118909 0.48118401 0.070653901
-0.103118 0.48470899 0.070653901
-0.068744503 0.49052399 0.070653901
-0.034370702 0.49417499 0.070653901
2.9800001e-06 0.49545199 0.070653901
0.494187 0.034325201 0.070653901
0.490693 0.068699002 0.070653901
0.481235 0.11851 0.070653901
0.47623101 0.137446 0.070653901
0.48472601 0.103073 0.070653901
0.46417901 0.17182 0.070653901
0.45071399 0.206194 0.070653901
0.446861 0.214458 0.070653901
0.432493 0.240568 0.070653901
0.41277 0.274941 0.070653901
0.13749801 0.47615901 0.070653901
0.119178 0.48118401 0.070653901
0.034376699 0.494279 0.070653901
0.068750396 0.490459 0.070653901
0.103124 0.48473099 0.070653901
0.171872 0.464228 0.070653901
0.20624501 0.450636 0.070653901
0.240619 0.432529 0.070653901
0.21437 0.44681001 0.070653901
0.274993 0.41263801 0.070653901
0.41248801 0.27535599 0.070653901
0.38668001 0.309315 0.070653901
0.37811401 0.31999901 0.070653901
0.356565 0.34368899 0.070653901
0.34373999 0.35652599 0.070653901
0.31997699 0.37806299 0.070653901
0.309367 0.38660601 0.070653901
0.27528799 0.41243601 0.070653901
-0.27498701 0.41243601 0.070564903
-0.343734 -0.34857401 0.105028
-0.34854501 -0.343786 0.105028
-0.30936101 -0.37965399 0.105028
-0.31118301 -0.37815899 0.105028
-0.27498701 -0.40514499 0.105028
-0.37810799 -0.31098899 0.105028
-0.37941301 -0.309412 0.105028
-0.405049 -0.275038 0.105028
-0.240613 -0.42573899 0.105028
-0.26404399 -0.41253299 0.105028
-0.206239 -0.44449601 0.105028
-0.171866 -0.45796001 0.105028
-0.200817 -0.44690701 0.105028
-0.137492 -0.46969301 0.105028
-0.068744503 -0.48485401 0.105028
-0.0910578 -0.48128101 0.105028
-0.034370702 -0.48839 0.105028
2.9800001e-06 -0.48952401 0.105028
-0.103118 -0.47883999 0.105028
-0.41248199 -0.263915 0.105028
-0.425758 -0.240665 0.105028
-0.44433099 -0.20629101 0.105028
-0.44685501 -0.200591 0.105028
-0.457928 -0.17191701 0.105028
-0.46965 -0.13754299 0.105028
-0.48122901 -0.090747401 0.105028
-0.484779 -0.068795897 0.105028
-0.47876099 -0.10317 0.105028
-0.48833901 -0.0344222 0.105028
-0.48944801 -4.8459999e-05 0.105028
0.034376699 -0.488316 0.105028
0.068750396 -0.484795 0.105028
0.091558397 -0.48128101 0.105028
0.103124 -0.47892499 0.105028
0.13749801 -0.46965599 0.105028
0.171872 -0.457977 0.105028
0.200679 -0.44690701 0.105028
0.20624501 -0.44444099 0.105028
0.240619 -0.42575201 0.105028
0.264121 -0.41253299 0.105028
0.274993 -0.40522301 0.105028
0.309367 -0.37957099 0.105028
0.31108701 -0.37815899 0.105028
0.34373999 -0.348667 0.105028
0.348656 -0.343786 0.105028
0.37811401 -0.310938 0.105028
0.37937501 -0.309412 0.105028
0.405065 -0.275038 0.105028
0.41248801 -0.263877 0.105028
0.42571101 -0.240665 0.105028
0.44432899 -0.20629101 0.105028
0.446861 -0.200556 0.105028
0.45792899 -0.17191701 0.105028
0.469652 -0.13754299 0.105028
0.47878301 -0.10317 0.105028
0.481235 -0.090867899 0.105028
0.48471299 -0.068795897 0.105028
0.48834199 -0.0344222 0.105028
0.48953101 -4.8459999e-05 0.105028
-0.48827499 0.034325201 0.105028
-0.48469499 0.068699002 0.105028
-0.48122901 0.0907408 0.105028
-0.478802 0.103073 0.105028
-0.46967301 0.137446 0.105028
-0.45793501 0.17182 0.105028
-0.44685501 0.200644 0.105028
-0.444354 0.206194 0.105028
-0.425735 0.240568 0.105028
-0.41248199 0.26411399 0.105028
-0.40510699 0.274941 0.105028
-0.379554 0.309315 0.105028
-0.37810799 0.311068 0.105028
-0.34866899 0.34368899 0.105028
-0.343734 0.34862101 0.105028
-0.31110901 0.37806299 0.105028
-0.30936101 0.37952101 0.105028
-0.27498701 0.404856 0.105028
-0.263798 0.41243601 0.105028
-0.240613 0.42560199 0.105028
-0.206239 0.444383 0.105028
-0.200901 0.44681001 0.105028
-0.171866 0.45790401 0.105028
-0.137492 0.46957099 0.105028
-0.103118 0.47873199 0.105028
-0.090778798 0.48118401 0.105028
-0.068744503 0.48464999 0.105028
-0.034370702 0.48817199 0.105028
2.9800001e-06 0.48947701 0.105028
0.488258 0.034325201 0.105028
0.48467401 0.068699002 0.105028
0.481235 0.090558298 0.105028
0.47883499 0.103073 0.105028
0.46967599 0.137446 0.105028
0.41248801 0.264144 0.105028
0.40516099 0.274941 0.105028
0.45796999 0.17182 0.105028
0.446861 0.200791 0.105028
0.44440901 0.206194 0.105028
0.42569101 0.240568 0.105028
0.274993 0.40497401 0.105028
0.26392001 0.41243601 0.105028
0.103124 0.47876701 0.105028
0.090797201 0.48118401 0.105028
0.13749801 0.46956101 0.105028
0.034376699 0.48826101 0.105028
0.068750396 0.48457101 0.105028
0.20624501 0.444336 0.105028
0.200764 0.44681001 0.105028
0.171872 0.45790601 0.105028
0.240619 0.42560601 0.105028
0.37953499 0.309315 0.105028
0.37811401 0.31104201 0.105028
0.34863499 0.34368899 0.105028
0.34373999 0.34859699 0.105028
0.311012 0.37806299 0.105028
0.309367 0.37942499 0.105028
-0.27498701 -0.41253299 0.072141498
-0.41248199 -0.275038 0.071939103
-0.206239 -0.44690701 0.094372503
-0.103118 -0.48128101 0.092954896
-0.44685501 -0.20629101 0.093764402
-0.48122901 -0.10317 0.092785403
0.103124 -0.48128101 0.093319297
0.20624501 -0.44690701 0.093710199
0.274993 -0.41253299 0.072327398
0.41248801 -0.275038 0.071793303
0.446861 -0.20629101 0.093737997
0.481235 -0.10317 0.092886701
-0.48122901 0.103073 0.092800401
-0.44685501 0.206194 0.093762197
-0.41248199 0.274941 0.072492301
-0.206239 0.44681001 0.094299898
-0.103118 0.48118401 0.092929102
0.481235 0.103073 0.093036801
0.41248801 0.274941 0.072487101
0.446861 0.206194 0.094061799
0.274993 0.41243601 0.071901999
0.103124 0.48118401 0.093230098
0.20624501 0.44681001 0.093996398
-0.27498701 -0.394086 0.139401
-0.29753801 -0.37815899 0.139401
-0.30936101 -0.36841401 0.139401
-0.336714 -0.343786 0.139401
-0.343734 -0.33677801 0.139401
-0.36822999 -0.309412 0.139401
-0.37810799 -0.297526 0.139401
-0.39409399 -0.275038 0.139401
-0.240613 -0.41668299 0.139401
-0.247738 -0.41253299 0.139401
-0.206239 -0.43422899 0.139401
-0.171866 -0.44944501 0.139401
-0.17847501 -0.44690701 0.139401
-0.137492 -0.460612 0.139401
2.9800001e-06 -0.481332 0.139401
-0.0069127702 -0.48128101 0.139401
-0.103118 -0.46980301 0.139401
-0.068744503 -0.476365 0.139401
-0.034370702 -0.480084 0.139401
-0.41248199 -0.247779 0.139401
-0.41666999 -0.240665 0.139401
-0.434174 -0.20629101 0.139401
-0.44685501 -0.178536 0.139401
-0.44938999 -0.17191701 0.139401
-0.46053299 -0.13754299 0.139401
-0.46966299 -0.10317 0.139401
-0.47631201 -0.068795897 0.139401
-0.48010901 -0.0344222 0.139401
-0.481204 -4.8459999e-05 0.139401
0.0072866702 -0.48128101 0.139401
0.034376699 -0.48008901 0.139401
0.068750396 -0.47634301 0.139401
0.103124 -0.46976501 0.139401
0.13749801 -0.46064201 0.139401
0.171872 -0.44940299 0.139401
0.178399 -0.44690701 0.139401
0.20624501 -0.434275 0.139401
0.240619 -0.41666499 0.139401
0.247766 -0.41253299 0.139401
0.274993 -0.394088 0.139401
0.29752699 -0.37815899 0.139401
0.309367 -0.36840299 0.139401
0.33677 -0.343786 0.139401
0.34373999 -0.33684501 0.139401
0.36823601 -0.309412 0.139401
0.37811401 -0.29748401 0.139401
0.39411899 -0.275038 0.139401
0.41248801 -0.24771599 0.139401
0.41664401 -0.240665 0.139401
0.43419299 -0.20629101 0.139401
0.446861 -0.178563 0.139401
0.449411 -0.17191701 0.139401
0.460513 -0.13754299 0.139401
0.469661 -0.10317 0.139401
0.476329 -0.068795897 0.139401
0.48009899 -0.0344222 0.139401
0.48120499 -4.8459999e-05 0.139401
-0.48005599 0.034325201 0.139401
-0.47621599 0.068699002 0.139401
-0.46967599 0.103073 0.139401
-0.46060699 0.137446 0.139401
-0.44936401 0.17182 0.139401
-0.44685501 0.178379 0.139401
-0.43418601 0.206194 0.139401
-0.41662699 0.240568 0.139401
-0.41248199 0.247683 0.139401
-0.39394301 0.274941 0.139401
-0.37810799 0.29753301 0.139401
-0.36839399 0.309315 0.139401
-0.343734 0.336678 0.139401
-0.33673701 0.34368899 0.139401
-0.30936101 0.368242 0.139401
-0.29749501 0.37806299 0.139401
-0.27498701 0.39397901 0.139401
-0.247673 0.41243601 0.139401
-0.240613 0.41657999 0.139401
-0.206239 0.43412501 0.139401
-0.178286 0.44681001 0.139401
-0.171866 0.44926 0.139401
-0.137492 0.46042901 0.139401
-0.103118 0.46962801 0.139401
-0.068744503 0.47620901 0.139401
-0.034370702 0.47992399 0.139401
-0.0043899999 0.48118401 0.139401
2.9800001e-06 0.481244 0.139401
0.48005399 0.034325201 0.139401
0.47621399 0.068699002 0.139401
0.46969301 0.103073 0.139401
0.46054599 0.137446 0.139401
0.41248801 0.24762399 0.139401
0.39396301 0.274941 0.139401
0.44939801 0.17182 0.139401
0.446861 0.17847399 0.139401
0.43417299 0.206194 0.139401
0.416628 0.240568 0.139401
0.274993 0.39396 0.139401
0.247669 0.41243601 0.139401
0.034376699 0.48003399 0.139401
0.0118797 0.48118401 0.139401
0.068750396 0.47617099 0.139401
0.103124 0.469621 0.139401
0.13749801 0.46045899 0.139401
0.20624501 0.43416899 0.139401
0.178168 0.44681001 0.139401
0.171872 0.449204 0.139401
0.240619 0.416572 0.139401
0.34373999 0.336656 0.139401
0.336725 0.34368899 0.139401
0.37811401 0.29753199 0.139401
0.36840999 0.309315 0.139401
0.309367 0.36819199 0.139401
0.29741299 0.37806299 0.139401
-0.343734 -0.343786 0.12073
-0.30936101 -0.37815899 0.110593
-0.37810799 -0.309412 0.109842
-0.068744503 -0.48128101 0.12074
-0.034370702 -0.48128101 0.135075
-0.48122901 -0.068795897 0.120728
-0.48122901 -0.0344222 0.135351
-0.48122901 -4.8459999e-05 0.139311
0.034376699 -0.48128101 0.13504399
0.068750396 -0.48128101 0.120525
0.309367 -0.37815899 0.110339
0.34373999 -0.343786 0.121164
0.37811401 -0.309412 0.109636
0.481235 -0.068795897 0.120574
0.481235 -0.0344222 0.13528
0.481235 -4.8459999e-05 0.139295
-0.48122901 0.034325201 0.135167
-0.48122901 0.068699002 0.120185
-0.37810799 0.309315 0.110508
-0.343734 0.34368899 0.121182
-0.30936101 0.37806299 0.110369
-0.068744503 0.48118401 0.120393
-0.034370702 0.48118401 0.13483199
0.481235 0.034325201 0.13513499
0.481235 0.068699002 0.120069
0.034376699 0.48118401 0.135224
0.068750396 0.48118401 0.120168
0.34373999 0.34368899 0.121069
0.37811401 0.309315 0.11041
0.309367 0.37806299 0.110022
-0.27498701 -0.38094199 0.173775
-0.27879 -0.37815899 0.173775
-0.30936101 -0.35332599 0.173775
-0.319998 -0.343786 0.173775
-0.343734 -0.320081 0.173775
-0.35324299 -0.309412 0.173775
-0.37810799 -0.278889 0.173775
-0.38093501 -0.275038 0.173775
-0.206239 -0.42185301 0.173775
-0.225227 -0.41253299 0.173775
-0.137492 -0.44944999 0.173775
-0.145945 -0.44690701 0.173775
-0.171866 -0.43723401 0.173775
-0.103118 -0.458123 0.173775
-0.068744503 -0.464452 0.173775
-0.034370702 -0.46836799 0.173775
2.9800001e-06 -0.46968299 0.173775
-0.240613 -0.40352699 0.173775
-0.41248199 -0.225392 0.173775
-0.42184499 -0.20629101 0.173775
-0.43715 -0.17191701 0.173775
-0.44685501 -0.14588501 0.173775
-0.449393 -0.13754299 0.173775
-0.40348601 -0.240665 0.173775
-0.45804 -0.10317 0.173775
-0.46443799 -0.068795897 0.173775
-0.46834099 -0.0344222 0.173775
-0.469594 -4.8459999e-05 0.173775
0.034376699 -0.46836999 0.173775
0.068750396 -0.464472 0.173775
0.103124 -0.45804399 0.173775
0.13749801 -0.44945699 0.173775
0.145955 -0.44690701 0.173775
0.171872 -0.43722099 0.173775
0.20624501 -0.421855 0.173775
0.225242 -0.41253299 0.173775
0.240619 -0.40359199 0.173775
0.274993 -0.38090599 0.173775
0.27876401 -0.37815899 0.173775
0.309367 -0.35317999 0.173775
0.31988999 -0.343786 0.173775
0.34373999 -0.32005599 0.173775
0.353232 -0.309412 0.173775
0.37811401 -0.27884099 0.173775
0.38088101 -0.275038 0.173775
0.40351799 -0.240665 0.173775
0.41248801 -0.225252 0.173775
0.42177099 -0.20629101 0.173775
0.437206 -0.17191701 0.173775
0.446861 -0.14592899 0.173775
0.449413 -0.13754299 0.173775
0.45802799 -0.10317 0.173775
0.464432 -0.068795897 0.173775
0.468366 -0.0344222 0.173775
0.469594 -4.8459999e-05 0.173775
-0.46831 0.034325201 0.173775
-0.46441799 0.068699002 0.173775
-0.45801201 0.103073 0.173775
-0.44933701 0.137446 0.173775
-0.44685501 0.145579 0.173775
-0.43713599 0.17182 0.173775
-0.42181599 0.206194 0.173775
-0.41248199 0.225077 0.173775
-0.40345901 0.240568 0.173775
-0.38083401 0.274941 0.173775
-0.37810799 0.27864599 0.173775
-0.35326701 0.309315 0.173775
-0.343734 0.31993601 0.173775
-0.31993401 0.34368899 0.173775
-0.30936101 0.35322201 0.173775
-0.278698 0.37806299 0.173775
-0.27498701 0.38076201 0.173775
-0.240613 0.40342301 0.173775
-0.22522099 0.41243601 0.173775
-0.206239 0.42177901 0.173775
-0.171866 0.43717501 0.173775
-0.14566 0.44681001 0.173775
-0.137492 0.44929099 0.173775
-0.103118 0.457986 0.173775
-0.068744503 0.46429899 0.173775
-0.034370702 0.4682 0.173775
2.9800001e-06 0.46960899 0.173775
0.468317 0.034325201 0.173775
0.46441001 0.068699002 0.173775
0.45801899 0.103073 0.173775
0.44936299 0.137446 0.173775
0.41248801 0.225033 0.173775
0.403483 0.240568 0.173775
0.38081899 0.274941 0.173775
0.446861 0.145633 0.173775
0.437154 0.17182 0.173775
0.42177999 0.206194 0.173775
0.240619 0.40345001 0.173775
0.22523201 0.41243601 0.173775
0.274993 0.38078901 0.173775
0.034376699 0.46829399 0.173775
0.068750396 0.464288 0.173775
0.103124 0.45794499 0.173775
0.13749801 0.44929501 0.173775
0.171872 0.437168 0.173775
0.145666 0.44681001 0.173775
0.20624501 0.421783 0.173775
0.34373999 0.31991401 0.173775
0.31980899 0.34368899 0.173775
0.37811401 0.278633 0.173775
0.35321 0.309315 0.173775
0.309367 0.35304901 0.173775
0.27875999 0.37806299 0.173775
-0.240613 -0.41253299 0.152162
-0.171866 -0.44690701 0.14799
2.9800001e-06 -0.48128101 0.13958301
-0.41248199 -0.240665 0.15227801
-0.44685501 -0.17191701 0.147927
0.171872 -0.44690701 0.147809
0.240619 -0.41253299 0.15222
0.41248801 -0.240665 0.152291
0.446861 -0.17191701 0.147956
-0.44685501 0.17182 0.14777701
-0.41248199 0.240568 0.152042
-0.240613 0.41243601 0.15222099
-0.171866 0.44681001 0.147686
2.9800001e-06 0.48118401 0.139615
0.41248801 0.240568 0.152114
0.446861 0.17182 0.147807
0.240619 0.41243601 0.15225799
0.171872 0.44681001 0.14751901
-0.27498701 -0.363233 0.208149
-0.29935801 -0.343786 0.208149
-0.343734 -0.299472 0.208149
-0.36320099 -0.275038 0.208149
-0.30936101 -0.33476099 0.208149
-0.33478501 -0.309412 0.208149
-0.171866 -0.42175499 0.208149
-0.19455899 -0.41253299 0.208149
-0.137492 -0.43411201 0.208149
-0.068744503 -0.45066601 0.208149
-0.091773599 -0.44690701 0.208149
-0.103118 -0.44444501 0.208149
-0.034370702 -0.45439801 0.208149
2.9800001e-06 -0.45552 0.208149
-0.240613 -0.386641 0.208149
-0.25439101 -0.37815899 0.208149
-0.206239 -0.40667 0.208149
-0.41248199 -0.194619 0.208149
-0.421727 -0.17191701 0.208149
-0.43421 -0.13754299 0.208149
-0.37810799 -0.25430399 0.208149
-0.386493 -0.240665 0.208149
-0.40661901 -0.20629101 0.208149
-0.44433901 -0.10317 0.208149
-0.44685501 -0.091433503 0.208149
-0.450591 -0.068795897 0.208149
-0.45427099 -0.0344222 0.208149
-0.455495 -4.8459999e-05 0.208149
0.034376699 -0.45435601 0.208149
0.068750396 -0.45068201 0.208149
0.091521397 -0.44690701 0.208149
0.103124 -0.444406 0.208149
0.13749801 -0.43422601 0.208149
0.171872 -0.42172301 0.208149
0.19458801 -0.41253299 0.208149
0.20624501 -0.40669701 0.208149
0.240619 -0.38666999 0.208149
0.25441301 -0.37815899 0.208149
0.274993 -0.363213 0.208149
0.299384 -0.343786 0.208149
0.309367 -0.33479199 0.208149
0.33475399 -0.309412 0.208149
0.34373999 -0.29942599 0.208149
0.36318699 -0.275038 0.208149
0.37811401 -0.25433001 0.208149
0.38656101 -0.240665 0.208149
0.406643 -0.20629101 0.208149
0.41248801 -0.194556 0.208149
0.42169601 -0.17191701 0.208149
0.43421301 -0.13754299 0.208149
0.44438201 -0.10317 0.208149
0.446861 -0.091789 0.208149
0.450627 -0.068795897 0.208149
0.45425501 -0.0344222 0.208149
0.45549801 -4.8459999e-05 0.208149
-0.454265 0.034325201 0.208149
-0.45062599 0.068699002 0.208149
-0.44685501 0.091489099 0.208149
-0.444323 0.103073 0.208149
-0.43410501 0.137446 0.208149
-0.42177501 0.17182 0.208149
-0.41248199 0.194506 0.208149
-0.40657699 0.206194 0.208149
-0.386507 0.240568 0.208149
-0.37810799 0.25413701 0.208149
-0.36309201 0.274941 0.208149
-0.343734 0.29939899 0.208149
-0.334833 0.309315 0.208149
-0.30936101 0.33467501 0.208149
-0.29941201 0.34368899 0.208149
-0.27498701 0.36307701 0.208149
-0.25431299 0.37806299 0.208149
-0.240613 0.38655299 0.208149
-0.206239 0.406459 0.208149
-0.19427299 0.41243601 0.208149
-0.171866 0.42164299 0.208149
-0.137492 0.43400499 0.208149
-0.103118 0.44436601 0.208149
-0.0921648 0.44681001 0.208149
-0.068744503 0.45065099 0.208149
-0.034370702 0.45423901 0.208149
2.9800001e-06 0.45540699 0.208149
0.45426601 0.034325201 0.208149
0.45064801 0.068699002 0.208149
0.446861 0.091596201 0.208149
0.44432899 0.103073 0.208149
0.43412501 0.137446 0.208149
0.41248801 0.1944 0.208149
0.40658599 0.206194 0.208149
0.38650301 0.240568 0.208149
0.37811401 0.25410101 0.208149
0.363069 0.274941 0.208149
0.42172399 0.17182 0.208149
0.20624501 0.406472 0.208149
0.19418401 0.41243601 0.208149
0.274993 0.363076 0.208149
0.25434801 0.37806299 0.208149
0.240619 0.38656899 0.208149
0.034376699 0.45427999 0.208149
0.068750396 0.45056799 0.208149
0.103124 0.44435099 0.208149
0.091742098 0.44681001 0.208149
0.13749801 0.43414399 0.208149
0.171872 0.42155999 0.208149
0.34373999 0.29937401 0.208149
0.334791 0.309315 0.208149
0.309367 0.334676 0.208149
0.29940799 0.34368899 0.208149
-0.27498701 -0.37815899 0.180048
-0.30936101 -0.343786 0.192939
-0.343734 -0.309412 0.193077
-0.37810799 -0.275038 0.180125
-0.206239 -0.41253299 0.196511
-0.137492 -0.44690701 0.180273
-0.103118 -0.44690701 0.20267799
-0.41248199 -0.20629101 0.196437
-0.44685501 -0.13754299 0.18038601
-0.44685501 -0.10317 0.202573
0.103124 -0.44690701 0.20255999
0.13749801 -0.44690701 0.180319
0.20624501 -0.41253299 0.196475
0.274993 -0.37815899 0.180025
0.309367 -0.343786 0.192826
0.34373999 -0.309412 0.19298799
0.37811401 -0.275038 0.180016
0.41248801 -0.20629101 0.19636001
0.446861 -0.13754299 0.180383
0.446861 -0.10317 0.202667
-0.44685501 0.103073 0.202537
-0.44685501 0.137446 0.18016
-0.41248199 0.206194 0.19643
-0.37810799 0.274941 0.179901
-0.343734 0.309315 0.193189
-0.30936101 0.34368899 0.19305
-0.27498701 0.37806299 0.17985301
-0.206239 0.41243601 0.196334
-0.137492 0.44681001 0.180097
-0.103118 0.44681001 0.20272
0.446861 0.103073 0.202557
0.446861 0.137446 0.18017399
0.41248801 0.206194 0.196353
0.37811401 0.274941 0.17988101
0.20624501 0.41243601 0.19626001
0.274993 0.37806299 0.179975
0.103124 0.44681001 0.20266899
0.13749801 0.44681001 0.18019301
0.34373999 0.309315 0.193068
0.309367 0.34368899 0.19285899
-0.30936101 -0.31072801 0.242523
-0.31067601 -0.309412 0.242523
-0.27498701 -0.34182101 0.242523
-0.34176299 -0.275038 0.242523
-0.137492 -0.416623 0.242523
-0.150012 -0.41253299 0.242523
-0.103118 -0.425771 0.242523
-0.068744503 -0.432603 0.242523
-0.034370702 -0.437235 0.242523
2.9800001e-06 -0.438802 0.242523
-0.206239 -0.38668701 0.242523
-0.22232699 -0.37815899 0.242523
-0.240613 -0.36654499 0.242523
-0.27253699 -0.343786 0.242523
-0.171866 -0.40355101 0.242523
-0.41248199 -0.149786 0.242523
-0.41649601 -0.13754299 0.242523
-0.343734 -0.27257699 0.242523
-0.36648899 -0.240665 0.242523
-0.37810799 -0.222248 0.242523
-0.38655001 -0.20629101 0.242523
-0.40340599 -0.17191701 0.242523
-0.42568201 -0.10317 0.242523
-0.43261999 -0.068795897 0.242523
-0.437208 -0.0344222 0.242523
-0.43872601 -4.8459999e-05 0.242523
0.034376699 -0.43729699 0.242523
0.068750396 -0.432659 0.242523
0.103124 -0.42568901 0.242523
0.13749801 -0.41657299 0.242523
0.149977 -0.41253299 0.242523
0.171872 -0.40352899 0.242523
0.20624501 -0.38662401 0.242523
0.22228999 -0.37815899 0.242523
0.240619 -0.36665899 0.242523
0.27246699 -0.343786 0.242523
0.274993 -0.341773 0.242523
0.309367 -0.31071401 0.242523
0.31066799 -0.309412 0.242523
0.34176201 -0.275038 0.242523
0.34373999 -0.27255201 0.242523
0.36654699 -0.240665 0.242523
0.37811401 -0.222294 0.242523
0.386547 -0.20629101 0.242523
0.40343899 -0.17191701 0.242523
0.41248801 -0.149707 0.242523
0.41645199 -0.13754299 0.242523
0.42566699 -0.10317 0.242523
0.43262801 -0.068795897 0.242523
0.43721199 -0.0344222 0.242523
0.43873 -4.8459999e-05 0.242523
-0.437199 0.034325201 0.242523
-0.432585 0.068699002 0.242523
-0.42562699 0.103073 0.242523
-0.41649601 0.137446 0.242523
-0.41248199 0.14985199 0.242523
-0.403395 0.17182 0.242523
-0.386509 0.206194 0.242523
-0.37810799 0.222262 0.242523
-0.36655799 0.240568 0.242523
-0.343734 0.272351 0.242523
-0.341663 0.274941 0.242523
-0.310637 0.309315 0.242523
-0.30936101 0.31058899 0.242523
-0.27498701 0.34168401 0.242523
-0.272475 0.34368899 0.242523
-0.240613 0.36638901 0.242523
-0.222241 0.37806299 0.242523
-0.206239 0.386509 0.242523
-0.171866 0.403267 0.242523
-0.149434 0.41243601 0.242523
-0.137492 0.41636601 0.242523
-0.103118 0.42561701 0.242523
-0.068744503 0.43250301 0.242523
-0.034370702 0.43696401 0.242523
2.9800001e-06 0.43856499 0.242523
0.437188 0.034325201 0.242523
0.432583 0.068699002 0.242523
0.425641 0.103073 0.242523
0.41643199 0.137446 0.242523
0.41248801 0.149592 0.242523
0.403386 0.17182 0.242523
0.386509 0.206194 0.242523
0.34373999 0.27234301 0.242523
0.341676 0.274941 0.242523
0.37811401 0.222184 0.242523
0.36655599 0.240568 0.242523
0.274993 0.34166101 0.242523
0.27244601 0.34368899 0.242523
0.171872 0.403308 0.242523
0.149546 0.41243601 0.242523
0.20624501 0.38637099 0.242523
0.240619 0.366427 0.242523
0.221985 0.37806299 0.242523
0.034376699 0.43720001 0.242523
0.068750396 0.43246701 0.242523
0.103124 0.42551601 0.242523
0.13749801 0.41635501 0.242523
0.31059301 0.309315 0.242523
