# .PCD v0.7 - Point Cloud Data file format
VERSION 0.7
FIELDS x y z
SIZE 4 4 4
TYPE F F F
COUNT 1 1 1
WIDTH 1456
HEIGHT 1
VIEWPOINT 0 0 0 1 0 0 0
POINTS 1456
DATA ascii
-0.038949501 0.49837101 -0.0066869901
-0.034370702 0.49872199 -0.0066869901
-0.025777301 0.49926701 -0.0066869901
-0.0171839 0.49964899 -0.0066869901
-0.0085904598 0.499883 -0.0066869901
2.9800001e-06 0.49996799 -0.0066869901
0.49995199 0.0085449796 -0.0066869901
0.499731 0.017138399 -0.0066869901
0.49934 0.025731901 -0.0066869901
0.49878299 0.034325201 -0.0066869901
0.498422 0.039012801 -0.0066869901
0.49809399 0.042918701 -0.0066869901
0.49725699 0.0515121 -0.0066869901
0.496263 0.060105599 -0.0066869901
0.49511299 0.068699002 -0.0066869901
0.481235 0.13556699 -0.0066869901
0.48069501 0.137446 -0.0066869901
0.49385199 0.077292398 -0.0066869901
0.49243599 0.085885897 -0.0066869901
0.49088699 0.0944793 -0.0066869901
0.489829 0.100181 -0.0066869901
0.489268 0.103073 -0.0066869901
0.48742601 0.111666 -0.0066869901
0.48532501 0.12026 -0.0066869901
0.483071 0.12885299 -0.0066869901
0.47805199 0.14603999 -0.0066869901
0.47530401 0.154633 -0.0066869901
0.472642 0.16292199 -0.0066869901
0.472543 0.16322701 -0.0066869901
0.469565 0.17182 -0.0066869901
0.464048 0.18589801 -0.0066869901
0.46283799 0.189007 -0.0066869901
0.466189 0.18041401 -0.0066869901
0.45914501 0.19760001 -0.0066869901
0.45545501 0.20609599 -0.0066869901
0.455412 0.206194 -0.0066869901
0.446861 0.22409301 -0.0066869901
0.44282401 0.23197401 -0.0066869901
0.43826801 0.240482 -0.0066869901
0.438223 0.240568 -0.0066869901
0.451428 0.21478701 -0.0066869901
0.44719499 0.223381 -0.0066869901
0.42967501 0.25545499 -0.0066869901
0.42835501 0.25775501 -0.0066869901
0.43334001 0.24916101 -0.0066869901
0.42290899 0.266348 -0.0066869901
0.42108101 0.26939699 -0.0066869901
0.41758299 0.274941 -0.0066869901
0.13749801 0.480616 -0.0066869901
0.13543899 0.48118401 -0.0066869901
0.0085964203 0.49988601 -0.0066869901
0.017189899 0.49965 -0.0066869901
0.0257833 0.499268 -0.0066869901
0.034376699 0.498721 -0.0066869901
0.042970099 0.498023 -0.0066869901
0.038933799 0.49837101 -0.0066869901
0.051563598 0.497181 -0.0066869901
0.060157001 0.49619901 -0.0066869901
0.068750396 0.49505001 -0.0066869901
0.077343903 0.49377501 -0.0066869901
0.085937299 0.49238199 -0.0066869901
0.103124 0.48918399 -0.0066869901
0.099929601 0.489777 -0.0066869901
0.094530702 0.490803 -0.0066869901
0.111718 0.48737401 -0.0066869901
0.120311 0.48527101 -0.0066869901
0.128904 0.482979 -0.0066869901
0.146091 0.47803599 -0.0066869901
0.15468501 0.47519299 -0.0066869901
0.163278 0.47247401 -0.0066869901
0.162875 0.47259 -0.0066869901
0.171872 0.469567 -0.0066869901
0.18905801 0.46276 -0.0066869901
0.185836 0.46399701 -0.0066869901
0.20624501 0.455378 -0.0066869901
0.20618799 0.455403 -0.0066869901
0.197652 0.45911101 -0.0066869901
0.180465 0.46610501 -0.0066869901
0.240619 0.438178 -0.0066869901
0.240547 0.43821701 -0.0066869901
0.232026 0.44281101 -0.0066869901
0.22421201 0.44681001 -0.0066869901
0.257806 0.42828599 -0.0066869901
0.25543699 0.42962301 -0.0066869901
0.274993 0.417629 -0.0066869901
0.26965901 0.42103001 -0.0066869901
0.266399 0.42293799 -0.0066869901
0.249213 0.43324301 -0.0066869901
0.214839 0.451368 -0.0066869901
0.223432 0.44716799 -0.0066869901
0.41248801 0.28244501 -0.0066869901
0.41176099 0.283535 -0.0066869901
0.40559801 0.292128 -0.0066869901
0.39530101 0.306133 -0.0066869901
0.392831 0.309315 -0.0066869901
0.40389401 0.294595 -0.0066869901
0.39939699 0.300722 -0.0066869901
0.37811401 0.32695299 -0.0066869901
0.370814 0.33509499 -0.0066869901
0.36952099 0.33653399 -0.0066869901
0.362863 0.34368899 -0.0066869901
0.38670701 0.31686801 -0.0066869901
0.38586599 0.317909 -0.0066869901
0.37850001 0.326502 -0.0066869901
0.34373999 0.362836 -0.0066869901
0.336615 0.36946899 -0.0066869901
0.33514699 0.370785 -0.0066869901
0.32700601 0.37806299 -0.0066869901
0.309367 0.392643 -0.0066869901
0.30595899 0.39524901 -0.0066869901
0.283586 0.41174001 -0.0066869901
0.282554 0.41243601 -0.0066869901
0.29218 0.40546301 -0.0066869901
0.30077299 0.39919099 -0.0066869901
0.294471 0.40384299 -0.0066869901
0.31795999 0.38575599 -0.0066869901
0.31682599 0.38665599 -0.0066869901
0.32655299 0.37844801 -0.0066869901
0.36092699 0.34572801 -0.0066869901
0.35450599 0.35228199 -0.0066869901
0.35233399 0.35445601 -0.0066869901
0.34579799 0.36087599 -0.0066869901
0.49972901 0.0128417 -0.0109837
-0.27498701 -0.41764599 0.00190645
-0.282592 -0.41253299 0.00190645
-0.41248199 -0.282713 0.00190645
-0.41767201 -0.275038 0.00190645
-0.343734 -0.363186 0.00190645
-0.346082 -0.360973 0.00190645
-0.360921 -0.346165 0.00190645
-0.36318099 -0.343786 0.00190645
-0.352328 -0.35486901 0.00190645
-0.35482499 -0.35237899 0.00190645
-0.326547 -0.37871599 0.00190645
-0.32720199 -0.37815899 0.00190645
-0.30936101 -0.393024 0.00190645
-0.31708801 -0.38675299 0.00190645
-0.317954 -0.38605699 0.00190645
-0.29217401 -0.40579399 0.00190645
-0.29488701 -0.40393999 0.00190645
-0.300767 -0.39963001 0.00190645
-0.306366 -0.39534599 0.00190645
-0.28358001 -0.41189399 0.00190645
-0.335141 -0.371086 0.00190645
-0.336844 -0.36956599 0.00190645
-0.37810799 -0.32727301 0.00190645
-0.378674 -0.326599 0.00190645
-0.38595301 -0.318005 0.00190645
-0.38670099 -0.31705701 0.00190645
-0.39285201 -0.309412 0.00190645
-0.369515 -0.33695599 0.00190645
-0.37108201 -0.33519199 0.00190645
-0.39529499 -0.306236 0.00190645
-0.39942399 -0.30081901 0.00190645
-0.40388799 -0.29475001 0.00190645
-0.40564999 -0.292225 0.00190645
-0.41186801 -0.28363201 0.00190645
-0.223426 -0.44735101 0.00190645
-0.224327 -0.44690701 0.00190645
-0.206239 -0.45556599 0.00190645
-0.206406 -0.45550001 0.00190645
-0.21483301 -0.45170501 0.00190645
-0.240613 -0.43837699 0.00190645
-0.24074499 -0.43831301 0.00190645
-0.249207 -0.43364799 0.00190645
-0.2559 -0.42972001 0.00190645
-0.26639301 -0.423035 0.00190645
-0.269485 -0.42112699 0.00190645
-0.25780001 -0.42859599 0.00190645
-0.23202001 -0.44287199 0.00190645
-0.18045899 -0.46641299 0.00190645
-0.18643001 -0.46409401 0.00190645
-0.171866 -0.46970999 0.00190645
-0.19764601 -0.45921299 0.00190645
-0.189053 -0.463034 0.00190645
-0.16327199 -0.47268799 0.00190645
-0.16327401 -0.47268701 0.00190645
-0.154679 -0.47548899 0.00190645
-0.14608499 -0.47823101 0.00190645
-0.137492 -0.480818 0.00190645
-0.12889899 -0.483233 0.00190645
-0.135876 -0.48128101 0.00190645
-0.120305 -0.48550501 0.00190645
-0.111712 -0.48754799 0.00190645
-0.103118 -0.48941001 0.00190645
-0.094524801 -0.49102801 0.00190645
-0.100845 -0.48987401 0.00190645
-0.085931301 -0.49254701 0.00190645
-0.077337898 -0.49398899 0.00190645
-0.068744503 -0.49526101 0.00190645
-0.034370702 -0.498936 0.00190645
-0.040365301 -0.49846801 0.00190645
-0.060151 -0.49638799 0.00190645
-0.0515576 -0.49739599 0.00190645
-0.042964201 -0.498245 0.00190645
-0.025777301 -0.49948299 0.00190645
-0.0171839 -0.499888 0.00190645
-0.0085904598 -0.50012302 0.00190645
2.9800001e-06 -0.50018603 0.00190645
-0.42107499 -0.26966399 0.00190645
-0.423042 -0.26644501 0.00190645
-0.42853901 -0.257851 0.00190645
-0.42966899 -0.255923 0.00190645
-0.43358901 -0.249258 0.00190645
-0.43826199 -0.240779 0.00190645
-0.438319 -0.240665 0.00190645
-0.44685501 -0.224401 0.00190645
-0.44730899 -0.223478 0.00190645
-0.451662 -0.214884 0.00190645
-0.45544899 -0.20644701 0.00190645
-0.45551199 -0.20629101 0.00190645
-0.44286799 -0.232071 0.00190645
-0.45920801 -0.197697 0.00190645
-0.46295801 -0.18910401 0.00190645
-0.46404201 -0.18640199 0.00190645
-0.466353 -0.180511 0.00190645
-0.469688 -0.17191701 0.00190645
-0.47263399 -0.163324 0.00190645
-0.47263601 -0.16331901 0.00190645
-0.47540501 -0.15473001 0.00190645
-0.47819301 -0.146137 0.00190645
-0.480753 -0.13754299 0.00190645
-0.48122901 -0.13580801 0.00190645
-0.483132 -0.12895 0.00190645
-0.485459 -0.120357 0.00190645
-0.48749799 -0.111763 0.00190645
-0.48932001 -0.10317 0.00190645
-0.48982301 -0.10068 0.00190645
-0.49097201 -0.094576202 0.00190645
-0.49249899 -0.0859828 0.00190645
-0.49389899 -0.0773893 0.00190645
-0.495206 -0.068795897 0.00190645
-0.49632901 -0.060202502 0.00190645
-0.49732 -0.051608998 0.00190645
-0.49841601 -0.040313099 0.00190645
-0.49887499 -0.0344222 0.00190645
-0.49817899 -0.043015599 0.00190645
-0.499419 -0.025828799 0.00190645
-0.49981099 -0.0172353 0.00190645
-0.50005502 -0.0086418996 0.00190645
-0.50012898 -4.8459999e-05 0.00190645
0.0085964203 -0.500121 0.00190645
0.017189899 -0.49988699 0.00190645
0.0257833 -0.49948299 0.00190645
0.034376699 -0.498934 0.00190645
0.040332898 -0.49846801 0.00190645
0.042970099 -0.498243 0.00190645
0.051563598 -0.49739799 0.00190645
0.060157001 -0.49638599 0.00190645
0.068750396 -0.49525899 0.00190645
0.077343903 -0.493992 0.00190645
0.085937299 -0.49254301 0.00190645
0.094530702 -0.49102601 0.00190645
0.100873 -0.48987401 0.00190645
0.103124 -0.489416 0.00190645
0.111718 -0.487542 0.00190645
0.120311 -0.485495 0.00190645
0.128904 -0.48323399 0.00190645
0.13590001 -0.48128101 0.00190645
0.13749801 -0.48082101 0.00190645
0.146091 -0.478221 0.00190645
0.15468501 -0.475483 0.00190645
0.163278 -0.472689 0.00190645
0.163284 -0.47268701 0.00190645
0.171872 -0.46970201 0.00190645
0.180465 -0.46640399 0.00190645
0.186425 -0.46409401 0.00190645
0.18905801 -0.463029 0.00190645
0.197652 -0.45921001 0.00190645
0.20624501 -0.45556399 0.00190645
0.206403 -0.45550001 0.00190645
0.214839 -0.45167801 0.00190645
0.223432 -0.447348 0.00190645
0.22432899 -0.44690701 0.00190645
0.232026 -0.442873 0.00190645
0.240619 -0.43837899 0.00190645
0.240753 -0.43831301 0.00190645
0.249213 -0.433626 0.00190645
0.25588399 -0.42972001 0.00190645
0.257806 -0.428583 0.00190645
0.266399 -0.42302999 0.00190645
0.26948899 -0.42112699 0.00190645
0.274993 -0.41764399 0.00190645
0.28259599 -0.41253299 0.00190645
0.283586 -0.41189301 0.00190645
0.29218 -0.405812 0.00190645
0.29492599 -0.40393999 0.00190645
0.30077299 -0.39964801 0.00190645
0.30638999 -0.39534599 0.00190645
0.309367 -0.39303401 0.00190645
0.317099 -0.38675299 0.00190645
0.31795999 -0.38606 0.00190645
0.32655299 -0.37870601 0.00190645
0.32719401 -0.37815899 0.00190645
0.33514699 -0.37106401 0.00190645
0.33682001 -0.36956599 0.00190645
0.34373999 -0.36315399 0.00190645
0.34605101 -0.360973 0.00190645
0.35233399 -0.354835 0.00190645
0.354799 -0.35237899 0.00190645
0.36092699 -0.34613901 0.00190645
0.363168 -0.343786 0.00190645
0.36952099 -0.33693799 0.00190645
0.37107399 -0.33519199 0.00190645
0.37811401 -0.32726401 0.00190645
0.37867299 -0.326599 0.00190645
0.385939 -0.318005 0.00190645
0.38670701 -0.317027 0.00190645
0.39282301 -0.309412 0.00190645
0.39530101 -0.306189 0.00190645
0.39939499 -0.30081901 0.00190645
0.40389401 -0.29471701 0.00190645
0.405642 -0.292225 0.00190645
0.41188401 -0.28363201 0.00190645
0.41248801 -0.28273401 0.00190645
0.417707 -0.275038 0.00190645
0.42108101 -0.26971799 0.00190645
0.42306399 -0.26644501 0.00190645
0.428527 -0.257851 0.00190645
0.42967501 -0.25588399 0.00190645
0.43356401 -0.249258 0.00190645
0.43826801 -0.24077 0.00190645
0.43832099 -0.240665 0.00190645
0.44288999 -0.232071 0.00190645
0.446861 -0.224402 0.00190645
0.44731301 -0.223478 0.00190645
0.45164299 -0.214884 0.00190645
0.45545501 -0.20643599 0.00190645
0.455515 -0.20629101 0.00190645
0.459223 -0.197697 0.00190645
0.46294799 -0.18910401 0.00190645
0.464048 -0.186349 0.00190645
0.466342 -0.180511 0.00190645
0.46970201 -0.17191701 0.00190645
0.47264001 -0.163324 0.00190645
0.472642 -0.16332 0.00190645
0.47539201 -0.15473001 0.00190645
0.47819901 -0.146137 0.00190645
0.480755 -0.13754299 0.00190645
0.481235 -0.135775 0.00190645
0.48312601 -0.12895 0.00190645
0.48546001 -0.120357 0.00190645
0.487501 -0.111763 0.00190645
0.489317 -0.10317 0.00190645
0.489829 -0.100606 0.00190645
0.490971 -0.094576202 0.00190645
0.492504 -0.0859828 0.00190645
0.49389899 -0.0773893 0.00190645
0.49520901 -0.068795897 0.00190645
0.496333 -0.060202502 0.00190645
0.49732199 -0.051608998 0.00190645
0.49818099 -0.043015599 0.00190645
0.498422 -0.040269401 0.00190645
0.498878 -0.0344222 0.00190645
0.499423 -0.025828799 0.00190645
0.49981201 -0.0172353 0.00190645
0.50005901 -0.0086418996 0.00190645
0.50013399 -4.8459999e-05 0.00190645
-0.50004399 0.0085449796 0.00190645
-0.499818 0.017138399 0.00190645
-0.49942201 0.025731901 0.00190645
-0.49886301 0.034325201 0.00190645
-0.49841601 0.040027902 0.00190645
-0.49817199 0.042918701 0.00190645
-0.49733201 0.0515121 0.00190645
-0.496326 0.060105599 0.00190645
-0.49518201 0.068699002 0.00190645
-0.49392101 0.077292398 0.00190645
-0.49249199 0.085885897 0.00190645
-0.490962 0.0944793 0.00190645
-0.48982301 0.100667 0.00190645
-0.48934901 0.103073 0.00190645
-0.48750499 0.111666 0.00190645
-0.485423 0.12026 0.00190645
-0.48316199 0.12885299 0.00190645
-0.48122901 0.135849 0.00190645
-0.480768 0.137446 0.00190645
-0.478127 0.14603999 0.00190645
-0.47538501 0.154633 0.00190645
-0.47263601 0.163183 0.00190645
-0.47262099 0.16322701 0.00190645
-0.46963799 0.17182 0.00190645
-0.46628699 0.18041401 0.00190645
-0.46404201 0.186176 0.00190645
-0.462928 0.189007 0.00190645
-0.45920801 0.19760001 0.00190645
-0.45548201 0.206194 0.00190645
-0.45544899 0.20627201 0.00190645
-0.451536 0.21478701 0.00190645
-0.447276 0.223381 0.00190645
-0.44685501 0.224264 0.00190645
-0.44288301 0.23197401 0.00190645
-0.43829399 0.240568 0.00190645
-0.43826199 0.24063 0.00190645
-0.43345699 0.24916101 0.00190645
-0.42966899 0.255658 0.00190645
-0.428453 0.25775501 0.00190645
-0.42297801 0.266348 0.00190645
-0.42107499 0.26949599 0.00190645
-0.417642 0.274941 0.00190645
-0.41248199 0.282563 0.00190645
-0.411838 0.283535 0.00190645
-0.40570301 0.292128 0.00190645
-0.40388799 0.29476899 0.00190645
-0.39952099 0.300722 0.00190645
-0.39529499 0.30628499 0.00190645
-0.392939 0.309315 0.00190645
-0.38670099 0.316993 0.00190645
-0.385961 0.317909 0.00190645
-0.378591 0.326502 0.00190645
-0.37810799 0.327066 0.00190645
-0.37091601 0.33509499 0.00190645
-0.369515 0.33665401 0.00190645
-0.362975 0.34368899 0.00190645
-0.360921 0.34585401 0.00190645
-0.35462901 0.35228199 0.00190645
-0.352328 0.35458601 0.00190645
-0.345929 0.36087599 0.00190645
-0.343734 0.36296901 0.00190645
-0.33674601 0.36946899 0.00190645
-0.335141 0.37090701 0.00190645
-0.32712701 0.37806299 0.00190645
-0.326547 0.378555 0.00190645
-0.317954 0.385842 0.00190645
-0.31692201 0.38665599 0.00190645
-0.30936101 0.39272201 0.00190645
-0.30605799 0.39524901 0.00190645
-0.300767 0.39928299 0.00190645
-0.29459 0.40384299 0.00190645
-0.29217401 0.40555099 0.00190645
-0.28358001 0.41182399 0.00190645
-0.28267401 0.41243601 0.00190645
-0.27498701 0.41771501 0.00190645
-0.26978901 0.42103001 0.00190645
-0.26639301 0.42303199 0.00190645
-0.25780001 0.42839 0.00190645
-0.25562799 0.42962301 0.00190645
-0.249207 0.433364 0.00190645
-0.24069101 0.43821701 0.00190645
-0.240613 0.43825799 0.00190645
-0.23202001 0.44288599 0.00190645
-0.224372 0.44681001 0.00190645
-0.223426 0.44725099 0.00190645
-0.21483301 0.45147899 0.00190645
-0.206352 0.455403 0.00190645
-0.206239 0.455452 0.00190645
-0.19764601 0.45918399 0.00190645
-0.189053 0.462845 0.00190645
-0.186076 0.46399701 0.00190645
-0.18045899 0.466207 0.00190645
-0.171866 0.46965301 0.00190645
-0.16327199 0.47255999 0.00190645
-0.163166 0.47259 0.00190645
-0.154679 0.47526899 0.00190645
-0.14608499 0.478131 0.00190645
-0.137492 0.480694 0.00190645
-0.135691 0.48118401 0.00190645
-0.12889899 0.48305699 0.00190645
-0.120305 0.48537201 0.00190645
-0.111712 0.48745799 0.00190645
-0.103118 0.48925999 0.00190645
-0.100375 0.489777 0.00190645
-0.094524801 0.49088499 0.00190645
-0.085931301 0.49244601 0.00190645
-0.077337898 0.49383801 0.00190645
-0.068744503 0.495123 0.00190645
-0.060151 0.49626699 0.00190645
-0.0515576 0.497253 0.00190645
-0.042964201 0.49810201 0.00190645
-0.039912902 0.49837101 0.00190645
-0.034370702 0.49880499 0.00190645
-0.025777301 0.49935201 0.00190645
-0.0171839 0.49973801 0.00190645
-0.0085904598 0.49997401 0.00190645
2.9800001e-06 0.500058 0.00190645
0.50004297 0.0085449796 0.00190645
0.49981901 0.017138399 0.00190645
0.49942601 0.025731901 0.00190645
0.49886599 0.034325201 0.00190645
0.498422 0.039983898 0.00190645
0.49817199 0.042918701 0.00190645
0.49733099 0.0515121 0.00190645
0.49633101 0.060105599 0.00190645
0.495179 0.068699002 0.00190645
0.481235 0.13583501 0.00190645
0.48077101 0.137446 0.00190645
0.493918 0.077292398 0.00190645
0.49250299 0.085885897 0.00190645
0.49095801 0.0944793 0.00190645
0.489829 0.10057 0.00190645
0.48934501 0.103073 0.00190645
0.48751599 0.111666 0.00190645
0.48541799 0.12026 0.00190645
0.48315701 0.12885299 0.00190645
0.478127 0.14603999 0.00190645
0.47537401 0.154633 0.00190645
0.472642 0.163149 0.00190645
0.472617 0.16322701 0.00190645
0.469652 0.17182 0.00190645
0.464048 0.18610699 0.00190645
0.462919 0.189007 0.00190645
0.46627501 0.18041401 0.00190645
0.45922399 0.19760001 0.00190645
0.45548299 0.206194 0.00190645
0.446861 0.224269 0.00190645
0.44290799 0.23197401 0.00190645
0.43829501 0.240568 0.00190645
0.45545501 0.206258 0.00190645
0.45152101 0.21478701 0.00190645
0.44727901 0.223381 0.00190645
0.42967501 0.255606 0.00190645
0.42844099 0.25775501 0.00190645
0.43826801 0.24062 0.00190645
0.43343401 0.24916101 0.00190645
0.423002 0.266348 0.00190645
0.42108101 0.269546 0.00190645
0.417678 0.274941 0.00190645
0.13749801 0.48069501 0.00190645
0.135728 0.48118401 0.00190645
0.0085964203 0.49997601 0.00190645
0.017189899 0.49973899 0.00190645
0.0257833 0.499354 0.00190645
0.034376699 0.49880299 0.00190645
0.042970099 0.49810001 0.00190645
0.039895099 0.49837101 0.00190645
0.051563598 0.497255 0.00190645
0.060157001 0.49626899 0.00190645
0.068750396 0.495116 0.00190645
0.077343903 0.49384099 0.00190645
0.085937299 0.49244899 0.00190645
0.103124 0.489261 0.00190645
0.100347 0.489777 0.00190645
0.094530702 0.49087599 0.00190645
0.111718 0.487463 0.00190645
0.120311 0.48536399 0.00190645
0.128904 0.48306501 0.00190645
0.146091 0.478109 0.00190645
0.15468501 0.47526699 0.00190645
0.163278 0.47255 0.00190645
0.163139 0.47259 0.00190645
0.171872 0.46965501 0.00190645
0.18905801 0.462841 0.00190645
0.186051 0.46399701 0.00190645
0.197652 0.45919099 0.00190645
0.20624501 0.455452 0.00190645
0.180465 0.466196 0.00190645
0.232026 0.44289601 0.00190645
0.22438499 0.44681001 0.00190645
0.240619 0.43825501 0.00190645
0.257806 0.42837399 0.00190645
0.255595 0.42962301 0.00190645
0.274993 0.417721 0.00190645
0.26979801 0.42103001 0.00190645
0.266399 0.42302799 0.00190645
0.249213 0.43334401 0.00190645
0.240692 0.43821701 0.00190645
0.214839 0.451464 0.00190645
0.206356 0.455403 0.00190645
0.223432 0.44725001 0.00190645
0.41248801 0.28257501 0.00190645
0.411847 0.283535 0.00190645
0.405689 0.292128 0.00190645
0.39530101 0.306256 0.00190645
0.39292601 0.309315 0.00190645
0.40389401 0.29472399 0.00190645
0.39949799 0.300722 0.00190645
0.37811401 0.32706001 0.00190645
0.370911 0.33509499 0.00190645
0.36952099 0.33664101 0.00190645
0.362966 0.34368899 0.00190645
0.38670701 0.31697801 0.00190645
0.38595599 0.317909 0.00190645
0.37859201 0.326502 0.00190645
0.34373999 0.36293799 0.00190645
0.336725 0.36946899 0.00190645
0.33514699 0.37088501 0.00190645
0.32711899 0.37806299 0.00190645
0.309367 0.39274201 0.00190645
0.30608901 0.39524901 0.00190645
0.283586 0.41182399 0.00190645
0.28268 0.41243601 0.00190645
0.29218 0.405554 0.00190645
0.30077299 0.39929399 0.00190645
0.29460001 0.40384299 0.00190645
0.31795999 0.38585001 0.00190645
0.316944 0.38665599 0.00190645
0.32655299 0.378544 0.00190645
0.36092699 0.34583601 0.00190645
0.35461 0.35228199 0.00190645
0.35233399 0.35455999 0.00190645
0.34590501 0.36087599 0.00190645
-0.206239 -0.45550001 -0.0065071001
-0.240613 -0.43831301 -0.0062808399
-0.16327199 -0.47268701 0.00086968997
-0.43826199 -0.240665 -0.0050826101
-0.45544899 -0.20629101 -0.0056862799
0.163278 -0.47268701 0.00019342
0.20624501 -0.45550001 -0.0064041601
0.240619 -0.43831301 -0.0062862001
0.43826801 -0.240665 -0.0048949099
0.45545501 -0.20629101 -0.0055405502
-0.45544899 0.206194 -0.0043261098
-0.43826199 0.240568 -0.0040910798
-0.240613 0.43821701 -0.00436801
-0.206239 0.455403 -0.0050792699
0.45545501 0.206194 -0.0037640301
0.43826801 0.240568 -0.0037048501
0.20624501 0.455403 -0.0051117502
0.240619 0.43821701 -0.0042214999
0.50004297 0.0042482601 -0.0023902699
-0.27498701 -0.41755599 0.0104999
-0.28246099 -0.41253299 0.0104999
-0.41248199 -0.28258801 0.0104999
-0.41758299 -0.275038 0.0104999
-0.343734 -0.363085 0.0104999
-0.345974 -0.360973 0.0104999
-0.360921 -0.346057 0.0104999
-0.363078 -0.343786 0.0104999
-0.352328 -0.354763 0.0104999
-0.35472 -0.35237899 0.0104999
-0.326547 -0.37862399 0.0104999
-0.32709399 -0.37815899 0.0104999
-0.30936101 -0.39292699 0.0104999
-0.31697601 -0.38675299 0.0104999
-0.317954 -0.385968 0.0104999
-0.29217401 -0.40570199 0.0104999
-0.294756 -0.40393999 0.0104999
-0.300767 -0.39953199 0.0104999
-0.30624199 -0.39534599 0.0104999
-0.28358001 -0.411807 0.0104999
-0.335141 -0.37099099 0.0104999
-0.33673799 -0.36956599 0.0104999
-0.37810799 -0.327158 0.0104999
-0.37857801 -0.326599 0.0104999
-0.385858 -0.318005 0.0104999
-0.38670099 -0.31693801 0.0104999
-0.39275301 -0.309412 0.0104999
-0.369515 -0.33684501 0.0104999
-0.37098199 -0.33519199 0.0104999
-0.39529499 -0.30611199 0.0104999
-0.39932901 -0.30081901 0.0104999
-0.40388799 -0.29462799 0.0104999
-0.40556499 -0.292225 0.0104999
-0.41178399 -0.28363201 0.0104999
-0.223426 -0.44727799 0.0104999
-0.224179 -0.44690701 0.0104999
-0.21483301 -0.451626 0.0104999
-0.206239 -0.45549101 0.0104999
-0.249207 -0.43356299 0.0104999
-0.25576699 -0.42972001 0.0104999
-0.240613 -0.43829799 0.0104999
-0.26639301 -0.42295501 0.0104999
-0.26935601 -0.42112699 0.0104999
-0.25780001 -0.42851701 0.0104999
-0.23202001 -0.44278899 0.0104999
-0.240582 -0.43831301 0.0104999
-0.18045899 -0.466335 0.0104999
-0.18623801 -0.46409401 0.0104999
-0.171866 -0.46963301 0.0104999
-0.19764601 -0.45913601 0.0104999
-0.20621599 -0.45550001 0.0104999
-0.189053 -0.46295601 0.0104999
-0.154679 -0.475411 0.0104999
-0.163073 -0.47268701 0.0104999
-0.16327199 -0.47262001 0.0104999
-0.14608499 -0.47815099 0.0104999
-0.137492 -0.48074299 0.0104999
-0.12889899 -0.483156 0.0104999
-0.13561299 -0.48128101 0.0104999
-0.120305 -0.48542899 0.0104999
-0.111712 -0.48747399 0.0104999
-0.103118 -0.48934099 0.0104999
-0.094524801 -0.49095601 0.0104999
-0.100494 -0.48987401 0.0104999
-0.085931301 -0.49247301 0.0104999
-0.077337898 -0.49391299 0.0104999
-0.068744503 -0.495186 0.0104999
-0.034370702 -0.49885899 0.0104999
-0.039444599 -0.49846801 0.0104999
-0.060151 -0.49631199 0.0104999
-0.0515576 -0.49732 0.0104999
-0.042964201 -0.49816799 0.0104999
-0.025777301 -0.49940601 0.0104999
-0.0171839 -0.49981099 0.0104999
-0.0085904598 -0.50004703 0.0104999
2.9800001e-06 -0.50011098 0.0104999
-0.42107499 -0.269532 0.0104999
-0.422959 -0.26644501 0.0104999
-0.42845401 -0.257851 0.0104999
-0.42966899 -0.25578201 0.0104999
-0.43349999 -0.249258 0.0104999
-0.438245 -0.240665 0.0104999
-0.44685501 -0.22424801 0.0104999
-0.447234 -0.223478 0.0104999
-0.45157701 -0.214884 0.0104999
-0.45544201 -0.20629101 0.0104999
-0.43826199 -0.240631 0.0104999
-0.442783 -0.232071 0.0104999
-0.45544899 -0.206273 0.0104999
-0.459126 -0.197697 0.0104999
-0.462879 -0.18910401 0.0104999
-0.46404201 -0.186205 0.0104999
-0.46627399 -0.180511 0.0104999
-0.46961099 -0.17191701 0.0104999
-0.472565 -0.163324 0.0104999
-0.47263601 -0.1631 0.0104999
-0.475328 -0.15473001 0.0104999
-0.47811401 -0.146137 0.0104999
-0.48067701 -0.13754299 0.0104999
-0.48122901 -0.135534 0.0104999
-0.48305601 -0.12895 0.0104999
-0.48538199 -0.120357 0.0104999
-0.487425 -0.111763 0.0104999
-0.48925099 -0.10317 0.0104999
-0.48982301 -0.100322 0.0104999
-0.490899 -0.094576202 0.0104999
-0.49242401 -0.0859828 0.0104999
-0.49382401 -0.0773893 0.0104999
-0.49513 -0.068795897 0.0104999
-0.49625301 -0.060202502 0.0104999
-0.49724299 -0.051608998 0.0104999
-0.49841601 -0.039392699 0.0104999
-0.49879599 -0.0344222 0.0104999
-0.49810299 -0.043015599 0.0104999
-0.49934101 -0.025828799 0.0104999
-0.499735 -0.0172353 0.0104999
-0.49998 -0.0086418996 0.0104999
-0.500054 -4.8459999e-05 0.0104999
0.0085964203 -0.500045 0.0104999
0.017189899 -0.49981099 0.0104999
0.0257833 -0.49940699 0.0104999
0.034376699 -0.49885699 0.0104999
0.039407901 -0.49846801 0.0104999
0.042970099 -0.49816599 0.0104999
0.051563598 -0.49732101 0.0104999
0.060157001 -0.49631 0.0104999
0.068750396 -0.49518299 0.0104999
0.077343903 -0.49391699 0.0104999
0.085937299 -0.49247 0.0104999
0.094530702 -0.490955 0.0104999
0.100521 -0.48987401 0.0104999
0.103124 -0.48934701 0.0104999
0.111718 -0.48747 0.0104999
0.120311 -0.48541901 0.0104999
0.128904 -0.48315701 0.0104999
0.135637 -0.48128101 0.0104999
0.13749801 -0.480746 0.0104999
0.146091 -0.47814199 0.0104999
0.15468501 -0.47540599 0.0104999
0.163083 -0.47268701 0.0104999
0.163278 -0.47262201 0.0104999
0.171872 -0.469625 0.0104999
0.180465 -0.46632501 0.0104999
0.186233 -0.46409401 0.0104999
0.18905801 -0.462951 0.0104999
0.197652 -0.45912701 0.0104999
0.206223 -0.45550001 0.0104999
0.20624501 -0.45549101 0.0104999
0.214839 -0.451594 0.0104999
0.223432 -0.44727299 0.0104999
0.224177 -0.44690701 0.0104999
0.232026 -0.44278601 0.0104999
0.240601 -0.43831301 0.0104999
0.240619 -0.43830401 0.0104999
0.249213 -0.43353701 0.0104999
0.25574499 -0.42972001 0.0104999
0.257806 -0.4285 0.0104999
0.266399 -0.42295 0.0104999
0.26935801 -0.42112699 0.0104999
0.274993 -0.41755301 0.0104999
0.282462 -0.41253299 0.0104999
0.283586 -0.41180399 0.0104999
0.29218 -0.40572101 0.0104999
0.29479501 -0.40393999 0.0104999
0.30077299 -0.39954999 0.0104999
0.30626699 -0.39534599 0.0104999
0.309367 -0.392937 0.0104999
0.31698701 -0.38675299 0.0104999
0.31795999 -0.38596901 0.0104999
0.32655299 -0.37861499 0.0104999
0.327088 -0.37815899 0.0104999
0.33514699 -0.370969 0.0104999
0.33671501 -0.36956599 0.0104999
0.34373999 -0.36305401 0.0104999
0.345945 -0.360973 0.0104999
0.35233399 -0.35473099 0.0104999
0.35469401 -0.35237899 0.0104999
0.36092699 -0.34603 0.0104999
0.36306301 -0.343786 0.0104999
0.36952099 -0.33682701 0.0104999
0.37097499 -0.33519199 0.0104999
0.37811401 -0.32714999 0.0104999
0.37857601 -0.326599 0.0104999
0.38584301 -0.318005 0.0104999
0.38670701 -0.31690699 0.0104999
0.39272401 -0.309412 0.0104999
0.39530101 -0.30606499 0.0104999
0.39930001 -0.30081901 0.0104999
0.40389401 -0.29459599 0.0104999
0.40555701 -0.292225 0.0104999
0.4118 -0.28363201 0.0104999
0.41248801 -0.28261 0.0104999
0.41761699 -0.275038 0.0104999
0.42108101 -0.26958099 0.0104999
0.42298001 -0.26644501 0.0104999
0.428442 -0.257851 0.0104999
0.42967501 -0.25574201 0.0104999
0.43347499 -0.249258 0.0104999
0.43824801 -0.240665 0.0104999
0.43826801 -0.24062499 0.0104999
0.44280401 -0.232071 0.0104999
0.446861 -0.22424699 0.0104999
0.44723701 -0.223478 0.0104999
0.45155901 -0.214884 0.0104999
0.45544499 -0.20629101 0.0104999
0.45545501 -0.206266 0.0104999
0.45914099 -0.197697 0.0104999
0.46286899 -0.18910401 0.0104999
0.464048 -0.18615399 0.0104999
0.466263 -0.180511 0.0104999
0.469625 -0.17191701 0.0104999
0.47257 -0.163324 0.0104999
0.472642 -0.163093 0.0104999
0.475315 -0.15473001 0.0104999
0.478118 -0.146137 0.0104999
0.48067901 -0.13754299 0.0104999
0.481235 -0.13550401 0.0104999
0.483051 -0.12895 0.0104999
0.485383 -0.120357 0.0104999
0.48742801 -0.111763 0.0104999
0.48924699 -0.10317 0.0104999
0.489829 -0.100242 0.0104999
0.490897 -0.094576202 0.0104999
0.49242899 -0.0859828 0.0104999
0.49382401 -0.0773893 0.0104999
0.49513301 -0.068795897 0.0104999
0.49625599 -0.060202502 0.0104999
0.49724501 -0.051608998 0.0104999
0.49810401 -0.043015599 0.0104999
0.498422 -0.0393571 0.0104999
0.49880099 -0.0344222 0.0104999
0.49934599 -0.025828799 0.0104999
0.499735 -0.0172353 0.0104999
0.49998301 -0.0086418996 0.0104999
0.50005901 -4.8459999e-05 0.0104999
-0.49996999 0.0085449796 0.0104999
-0.499742 0.017138399 0.0104999
-0.49934599 0.025731901 0.0104999
-0.49878699 0.034325201 0.0104999
-0.49841601 0.039104901 0.0104999
-0.49809599 0.042918701 0.0104999
-0.497255 0.0515121 0.0104999
-0.49625 0.060105599 0.0104999
-0.49510401 0.068699002 0.0104999
-0.493844 0.077292398 0.0104999
-0.49241701 0.085885897 0.0104999
-0.49089 0.0944793 0.0104999
-0.48982301 0.100313 0.0104999
-0.489281 0.103073 0.0104999
-0.487432 0.111666 0.0104999
-0.485347 0.12026 0.0104999
-0.48308599 0.12885299 0.0104999
-0.48122901 0.13559 0.0104999
-0.48069301 0.137446 0.0104999
-0.478048 0.14603999 0.0104999
-0.475308 0.154633 0.0104999
-0.47263601 0.162976 0.0104999
-0.472554 0.16322701 0.0104999
-0.46956101 0.17182 0.0104999
-0.46620899 0.18041401 0.0104999
-0.46404201 0.185982 0.0104999
-0.46285 0.189007 0.0104999
-0.45912501 0.19760001 0.0104999
-0.45544899 0.206103 0.0104999
-0.45541 0.206194 0.0104999
-0.451453 0.21478701 0.0104999
-0.44719899 0.223381 0.0104999
-0.44685501 0.224103 0.0104999
-0.44279501 0.23197401 0.0104999
-0.43826199 0.24048699 0.0104999
-0.43821999 0.240568 0.0104999
-0.43337101 0.24916101 0.0104999
-0.42966899 0.25551701 0.0104999
-0.42836899 0.25775501 0.0104999
-0.42289501 0.266348 0.0104999
-0.42107499 0.26935801 0.0104999
-0.417548 0.274941 0.0104999
-0.41248199 0.28242999 0.0104999
-0.41174901 0.283535 0.0104999
-0.40561199 0.292128 0.0104999
-0.40388799 0.29463801 0.0104999
-0.39942399 0.300722 0.0104999
-0.39529499 0.306164 0.0104999
-0.39284301 0.309315 0.0104999
-0.38670099 0.316883 0.0104999
-0.38587099 0.317909 0.0104999
-0.37850499 0.326502 0.0104999
-0.37810799 0.32696599 0.0104999
-0.37082601 0.33509499 0.0104999
-0.369515 0.33655301 0.0104999
-0.362881 0.34368899 0.0104999
-0.360921 0.34575501 0.0104999
-0.35453001 0.35228199 0.0104999
-0.352328 0.354487 0.0104999
-0.34582701 0.36087599 0.0104999
-0.343734 0.36287001 0.0104999
-0.33663899 0.36946899 0.0104999
-0.335141 0.37081099 0.0104999
-0.32701799 0.37806299 0.0104999
-0.326547 0.37846199 0.0104999
-0.317954 0.385748 0.0104999
-0.31680399 0.38665599 0.0104999
-0.30936101 0.39262399 0.0104999
-0.30593601 0.39524901 0.0104999
-0.300767 0.39919001 0.0104999
-0.29447201 0.40384299 0.0104999
-0.29217401 0.405467 0.0104999
-0.28358001 0.41174001 0.0104999
-0.282552 0.41243601 0.0104999
-0.27498701 0.417624 0.0104999
-0.26964501 0.42103001 0.0104999
-0.26639301 0.42294401 0.0104999
-0.25780001 0.42830199 0.0104999
-0.25547999 0.42962301 0.0104999
-0.249207 0.43327799 0.0104999
-0.240613 0.43818501 0.0104999
-0.240554 0.43821701 0.0104999
-0.23202001 0.44279701 0.0104999
-0.22420099 0.44681001 0.0104999
-0.223426 0.44717199 0.0104999
-0.21483301 0.45139599 0.0104999
-0.206239 0.455383 0.0104999
-0.206192 0.455403 0.0104999
-0.19764601 0.45910099 0.0104999
-0.189053 0.46276399 0.0104999
-0.18587799 0.46399701 0.0104999
-0.18045899 0.46612999 0.0104999
-0.171866 0.469574 0.0104999
-0.16327199 0.472489 0.0104999
-0.162925 0.47259 0.0104999
-0.154679 0.47519401 0.0104999
-0.14608499 0.47805199 0.0104999
-0.137492 0.48062 0.0104999
-0.13542201 0.48118401 0.0104999
-0.12889899 0.48298201 0.0104999
-0.120305 0.48529699 0.0104999
-0.111712 0.48738599 0.0104999
-0.103118 0.489191 0.0104999
-0.100007 0.489777 0.0104999
-0.094524801 0.490814 0.0104999
-0.085931301 0.49237201 0.0104999
-0.077337898 0.493763 0.0104999
-0.068744503 0.49504799 0.0104999
-0.060151 0.49619099 0.0104999
-0.0515576 0.497177 0.0104999
-0.042964201 0.498027 0.0104999
-0.039005801 0.49837101 0.0104999
-0.034370702 0.49872899 0.0104999
-0.025777301 0.49927601 0.0104999
-0.0171839 0.49966201 0.0104999
-0.0085904598 0.499899 0.0104999
2.9800001e-06 0.49998301 0.0104999
0.49996799 0.0085449796 0.0104999
0.49974301 0.017138399 0.0104999
0.499349 0.025731901 0.0104999
0.49878901 0.034325201 0.0104999
0.498422 0.039057098 0.0104999
0.49809599 0.042918701 0.0104999
0.497255 0.0515121 0.0104999
0.496254 0.060105599 0.0104999
0.49510199 0.068699002 0.0104999
0.481235 0.135575 0.0104999
0.48069599 0.137446 0.0104999
0.49384201 0.077292398 0.0104999
0.49242699 0.085885897 0.0104999
0.490886 0.0944793 0.0104999
0.489829 0.100214 0.0104999
0.48927701 0.103073 0.0104999
0.487443 0.111666 0.0104999
0.485342 0.12026 0.0104999
0.48308 0.12885299 0.0104999
0.47804901 0.14603999 0.0104999
0.47529599 0.154633 0.0104999
0.472642 0.16293401 0.0104999
0.47254801 0.16322701 0.0104999
0.46957499 0.17182 0.0104999
0.464048 0.185913 0.0104999
0.46283999 0.189007 0.0104999
0.46619701 0.18041401 0.0104999
0.45914099 0.19760001 0.0104999
0.45545501 0.206095 0.0104999
0.455412 0.206194 0.0104999
0.446861 0.224103 0.0104999
0.44282001 0.23197401 0.0104999
0.43826801 0.24048001 0.0104999
0.43822199 0.240568 0.0104999
0.45143801 0.21478701 0.0104999
0.44720101 0.223381 0.0104999
0.42967501 0.25546399 0.0104999
0.42835599 0.25775501 0.0104999
0.433348 0.24916101 0.0104999
0.42291701 0.266348 0.0104999
0.42108101 0.26940599 0.0104999
0.41758499 0.274941 0.0104999
0.13749801 0.48062101 0.0104999
0.135465 0.48118401 0.0104999
0.0085964203 0.499901 0.0104999
0.017189899 0.499663 0.0104999
0.0257833 0.499277 0.0104999
0.034376699 0.49872699 0.0104999
0.042970099 0.49802399 0.0104999
0.038979501 0.49837101 0.0104999
0.051563598 0.49717799 0.0104999
0.060157001 0.49619299 0.0104999
0.068750396 0.49504 0.0104999
0.077343903 0.493765 0.0104999
0.085937299 0.49237499 0.0104999
0.103124 0.48919201 0.0104999
0.0999787 0.489777 0.0104999
0.094530702 0.490805 0.0104999
0.111718 0.48739001 0.0104999
0.120311 0.48528901 0.0104999
0.128904 0.48299 0.0104999
0.146091 0.47803 0.0104999
0.15468501 0.475191 0.0104999
0.163278 0.47247899 0.0104999
0.16289701 0.47259 0.0104999
0.171872 0.46957499 0.0104999
0.18905801 0.462762 0.0104999
0.185856 0.46399701 0.0104999
0.20624501 0.45538199 0.0104999
0.20619699 0.455403 0.0104999
0.197652 0.459108 0.0104999
0.180465 0.46612 0.0104999
0.240619 0.43818301 0.0104999
0.240556 0.43821701 0.0104999
0.232026 0.442808 0.0104999
0.224213 0.44681001 0.0104999
0.257806 0.428287 0.0104999
0.25544801 0.42962301 0.0104999
0.274993 0.417629 0.0104999
0.26965299 0.42103001 0.0104999
0.266399 0.42293999 0.0104999
0.249213 0.43325901 0.0104999
0.214839 0.45138001 0.0104999
0.223432 0.44716999 0.0104999
0.41248801 0.282446 0.0104999
0.41176 0.283535 0.0104999
0.40560099 0.292128 0.0104999
0.39530101 0.306133 0.0104999
0.39282799 0.309315 0.0104999
0.40389401 0.29459801 0.0104999
0.39940199 0.300722 0.0104999
0.37811401 0.326958 0.0104999
0.370821 0.33509499 0.0104999
0.36952099 0.336541 0.0104999
0.362872 0.34368899 0.0104999
0.38670701 0.31686899 0.0104999
0.385867 0.317909 0.0104999
0.37850499 0.326502 0.0104999
0.34373999 0.36284199 0.0104999
0.33662099 0.36946899 0.0104999
0.33514699 0.370792 0.0104999
0.32701299 0.37806299 0.0104999
0.309367 0.39264399 0.0104999
0.305967 0.39524901 0.0104999
0.283586 0.41174001 0.0104999
0.28255701 0.41243601 0.0104999
0.29218 0.40547001 0.0104999
0.30077299 0.39920101 0.0104999
0.29448199 0.40384299 0.0104999
0.31795999 0.385757 0.0104999
0.31682801 0.38665599 0.0104999
0.32655299 0.378454 0.0104999
0.36092699 0.34573701 0.0104999
0.35451201 0.35228199 0.0104999
0.35233399 0.354462 0.0104999
0.34580401 0.36087599 0.0104999
-0.206239 -0.45550001 0.0098205796
-0.240613 -0.43831301 0.00944704
-0.16327199 -0.47268701 0.0023831101
-0.43826199 -0.240665 0.0094805397
-0.45544899 -0.20629101 0.0100519
0.163278 -0.47268701 0.0030350101
0.20624501 -0.45550001 0.0098599801
0.240619 -0.43831301 0.0098777404
0.43826801 -0.240665 0.0092892097
0.45545501 -0.20629101 0.0098579498
-0.45544899 0.206194 0.0074056401
-0.43826199 0.240568 0.0072125802
-0.240613 0.43821701 0.0083735604
-0.206239 0.455403 0.0090912599
0.45545501 0.206194 0.00696528
0.43826801 0.240568 0.0067772302
0.20624501 0.455403 0.0090292701
0.240619 0.43821701 0.0081500402
-0.27498701 -0.41727301 0.019093299
-0.28204599 -0.41253299 0.019093299
-0.41248199 -0.282199 0.019093299
-0.41730201 -0.275038 0.019093299
-0.343734 -0.36277601 0.019093299
-0.34564799 -0.360973 0.019093299
-0.360921 -0.34573099 0.019093299
-0.36276701 -0.343786 0.019093299
-0.352328 -0.35444701 0.019093299
-0.35440099 -0.35237899 0.019093299
-0.326547 -0.37834701 0.019093299
-0.32676801 -0.37815899 0.019093299
-0.30936101 -0.392636 0.019093299
-0.31663799 -0.38675299 0.019093299
-0.317954 -0.38569599 0.019093299
-0.29217401 -0.40541801 0.019093299
-0.29435301 -0.40393999 0.019093299
-0.300767 -0.399232 0.019093299
-0.30586901 -0.39534599 0.019093299
-0.28358001 -0.41153499 0.019093299
-0.335141 -0.3707 0.019093299
-0.336413 -0.36956599 0.019093299
-0.37810799 -0.326814 0.019093299
-0.378288 -0.326599 0.019093299
-0.385573 -0.318005 0.019093299
-0.38670099 -0.31657901 0.019093299
-0.392454 -0.309412 0.019093299
-0.369515 -0.336512 0.019093299
-0.370684 -0.33519199 0.019093299
-0.39529499 -0.305731 0.019093299
-0.399028 -0.30081901 0.019093299
-0.40388799 -0.294245 0.019093299
-0.40529501 -0.292225 0.019093299
-0.411524 -0.28363201 0.019093299
-0.223426 -0.44704801 0.019093299
-0.223713 -0.44690701 0.019093299
-0.21483301 -0.45136499 0.019093299
-0.206239 -0.45526999 0.019093299
-0.249207 -0.43328801 0.019093299
-0.255348 -0.42972001 0.019093299
-0.240613 -0.43806601 0.019093299
-0.26639301 -0.42270201 0.019093299
-0.268949 -0.42112699 0.019093299
-0.25780001 -0.428271 0.019093299
-0.23202001 -0.44252101 0.019093299
-0.2401 -0.43831301 0.019093299
-0.18045899 -0.466086 0.019093299
-0.18565799 -0.46409401 0.019093299
-0.171866 -0.469381 0.019093299
-0.19764601 -0.45888299 0.019093299
-0.205651 -0.45550001 0.019093299
-0.189053 -0.46272701 0.019093299
-0.154679 -0.47518599 0.019093299
-0.162449 -0.47268701 0.019093299
-0.16327199 -0.47241101 0.019093299
-0.14608499 -0.47791901 0.019093299
-0.137492 -0.480515 0.019093299
-0.12889899 -0.48291099 0.019093299
-0.1348 -0.48128101 0.019093299
-0.120305 -0.485181 0.019093299
-0.111712 -0.48723501 0.019093299
-0.103118 -0.48912501 0.019093299
-0.094524801 -0.49074 0.019093299
-0.099412002 -0.48987401 0.019093299
-0.085931301 -0.49225599 0.019093299
-0.077337898 -0.49370301 0.019093299
-0.068744503 -0.49496999 0.019093299
-0.034370702 -0.498622 0.019093299
-0.036487199 -0.49846801 0.019093299
-0.060151 -0.49609199 0.019093299
-0.0515576 -0.497096 0.019093299
-0.042964201 -0.49793699 0.019093299
-0.025777301 -0.499163 0.019093299
-0.0171839 -0.49956501 0.019093299
-0.0085904598 -0.4998 0.019093299
2.9800001e-06 -0.49986401 0.019093299
-0.42107499 -0.269117 0.019093299
-0.42270499 -0.26644501 0.019093299
-0.428206 -0.257851 0.019093299
-0.42966899 -0.25535399 0.019093299
-0.43322101 -0.249258 0.019093299
-0.438007 -0.240665 0.019093299
-0.44685501 -0.22377899 0.019093299
-0.44700301 -0.223478 0.019093299
-0.45131299 -0.214884 0.019093299
-0.45521301 -0.20629101 0.019093299
-0.43826199 -0.240154 0.019093299
-0.44252399 -0.232071 0.019093299
-0.45544899 -0.205713 0.019093299
-0.45888099 -0.197697 0.019093299
-0.46264499 -0.18910401 0.019093299
-0.46404201 -0.185606 0.019093299
-0.46601999 -0.180511 0.019093299
-0.469354 -0.17191701 0.019093299
-0.47235301 -0.163324 0.019093299
-0.47263601 -0.16243599 0.019093299
-0.475099 -0.15473001 0.019093299
-0.47788599 -0.146137 0.019093299
-0.48044699 -0.13754299 0.019093299
-0.48122901 -0.13469 0.019093299
-0.482811 -0.12895 0.019093299
-0.485136 -0.120357 0.019093299
-0.48718601 -0.111763 0.019093299
-0.48902899 -0.10317 0.019093299
-0.48982301 -0.099201903 0.019093299
-0.49068201 -0.094576202 0.019093299
-0.49221 -0.0859828 0.019093299
-0.49361101 -0.0773893 0.019093299
-0.49491701 -0.068795897 0.019093299
-0.49603301 -0.060202502 0.019093299
-0.49701801 -0.051608998 0.019093299
-0.49841601 -0.036410298 0.019093299
-0.498559 -0.0344222 0.019093299
-0.49787199 -0.043015599 0.019093299
-0.499098 -0.025828799 0.019093299
-0.49948999 -0.0172353 0.019093299
-0.499733 -0.0086418996 0.019093299
-0.499807 -4.8459999e-05 0.019093299
0.0085964203 -0.499798 0.019093299
0.017189899 -0.49956599 0.019093299
0.0257833 -0.499165 0.019093299
0.034376699 -0.49862099 0.019093299
0.036456801 -0.49846801 0.019093299
0.042970099 -0.497935 0.019093299
0.051563598 -0.49709699 0.019093299
0.060157001 -0.49608999 0.019093299
0.068750396 -0.49496701 0.019093299
0.077343903 -0.493707 0.019093299
0.085937299 -0.49225399 0.019093299
0.094530702 -0.49074 0.019093299
0.099442199 -0.48987401 0.019093299
0.103124 -0.489131 0.019093299
0.111718 -0.48722899 0.019093299
0.120311 -0.485172 0.019093299
0.128904 -0.482912 0.019093299
0.134827 -0.48128101 0.019093299
0.13749801 -0.48051801 0.019093299
0.146091 -0.47791001 0.019093299
0.15468501 -0.47518101 0.019093299
0.16246399 -0.47268701 0.019093299
0.163278 -0.472413 0.019093299
0.171872 -0.46937299 0.019093299
0.180465 -0.46607801 0.019093299
0.18565901 -0.46409401 0.019093299
0.18905801 -0.462724 0.019093299
0.197652 -0.45888501 0.019093299
0.20566399 -0.45550001 0.019093299
0.20624501 -0.45526901 0.019093299
0.214839 -0.45134199 0.019093299
0.223432 -0.447045 0.019093299
0.22371501 -0.44690701 0.019093299
0.232026 -0.44252801 0.019093299
0.240124 -0.43831301 0.019093299
0.240619 -0.43807101 0.019093299
0.249213 -0.43327299 0.019093299
0.25534001 -0.42972001 0.019093299
0.257806 -0.42826101 0.019093299
0.266399 -0.42269599 0.019093299
0.268949 -0.42112699 0.019093299
0.274993 -0.41726699 0.019093299
0.28204501 -0.41253299 0.019093299
0.283586 -0.41153401 0.019093299
0.29218 -0.40543801 0.019093299
0.29439601 -0.40393999 0.019093299
0.30077299 -0.39925501 0.019093299
0.30590001 -0.39534599 0.019093299
0.309367 -0.39265299 0.019093299
0.316652 -0.38675299 0.019093299
0.31795999 -0.385699 0.019093299
0.32655299 -0.37834001 0.019093299
0.326765 -0.37815899 0.019093299
0.33514699 -0.37067899 0.019093299
0.336391 -0.36956599 0.019093299
0.34373999 -0.362748 0.019093299
0.345622 -0.360973 0.019093299
0.35233399 -0.354415 0.019093299
0.35437599 -0.35237899 0.019093299
0.36092699 -0.34570199 0.019093299
0.36274901 -0.343786 0.019093299
0.36952099 -0.336492 0.019093299
0.370675 -0.33519199 0.019093299
0.37811401 -0.326803 0.019093299
0.37828499 -0.326599 0.019093299
0.385555 -0.318005 0.019093299
0.38670701 -0.31654301 0.019093299
0.39242399 -0.309412 0.019093299
0.39530101 -0.30568501 0.019093299
0.399001 -0.30081901 0.019093299
0.40389401 -0.29421601 0.019093299
0.40528801 -0.292225 0.019093299
0.41154301 -0.28363201 0.019093299
0.41248801 -0.28222799 0.019093299
0.41733801 -0.275038 0.019093299
0.42108101 -0.26916799 0.019093299
0.42272499 -0.26644501 0.019093299
0.42819101 -0.257851 0.019093299
0.42967501 -0.255308 0.019093299
0.43319499 -0.249258 0.019093299
0.438012 -0.240665 0.019093299
0.43826801 -0.240161 0.019093299
0.44254699 -0.232071 0.019093299
0.446861 -0.223774 0.019093299
0.447005 -0.223478 0.019093299
0.451294 -0.214884 0.019093299
0.45521799 -0.20629101 0.019093299
0.45545501 -0.205722 0.019093299
0.45889801 -0.197697 0.019093299
0.462634 -0.18910401 0.019093299
0.464048 -0.18555 0.019093299
0.46600801 -0.180511 0.019093299
0.46936801 -0.17191701 0.019093299
0.472357 -0.163324 0.019093299
0.472642 -0.162407 0.019093299
0.47508401 -0.15473001 0.019093299
0.47789299 -0.146137 0.019093299
0.48045099 -0.13754299 0.019093299
0.481235 -0.13465901 0.019093299
0.48280799 -0.12895 0.019093299
0.485138 -0.120357 0.019093299
0.48718899 -0.111763 0.019093299
0.489025 -0.10317 0.019093299
0.489829 -0.0991119 0.019093299
0.49068099 -0.094576202 0.019093299
0.49221399 -0.0859828 0.019093299
0.49361101 -0.0773893 0.019093299
0.494921 -0.068795897 0.019093299
0.49603599 -0.060202502 0.019093299
0.49701801 -0.051608998 0.019093299
0.49787399 -0.043015599 0.019093299
0.498422 -0.036373299 0.019093299
0.49856299 -0.0344222 0.019093299
0.499102 -0.025828799 0.019093299
0.49948999 -0.0172353 0.019093299
0.499735 -0.0086418996 0.019093299
0.49981099 -4.8459999e-05 0.019093299
-0.499722 0.0085449796 0.019093299
-0.49949601 0.017138399 0.019093299
-0.49910301 0.025731901 0.019093299
-0.49855199 0.034325201 0.019093299
-0.49841601 0.0361435 0.019093299
-0.49786401 0.042918701 0.019093299
-0.49702901 0.0515121 0.019093299
-0.496032 0.060105599 0.019093299
-0.49489 0.068699002 0.019093299
-0.49363199 0.077292398 0.019093299
-0.492203 0.085885897 0.019093299
-0.490677 0.0944793 0.019093299
-0.48982301 0.099205099 0.019093299
-0.48906001 0.103073 0.019093299
-0.48719099 0.111666 0.019093299
-0.48509699 0.12026 0.019093299
-0.482842 0.12885299 0.019093299
-0.48122901 0.134795 0.019093299
-0.48046899 0.137446 0.019093299
-0.477815 0.14603999 0.019093299
-0.475086 0.154633 0.019093299
-0.47263601 0.16233601 0.019093299
-0.472341 0.16322701 0.019093299
-0.469313 0.17182 0.019093299
-0.465965 0.18041401 0.019093299
-0.46404201 0.185386 0.019093299
-0.462614 0.189007 0.019093299
-0.45888099 0.19760001 0.019093299
-0.45544899 0.205605 0.019093299
-0.45519701 0.206194 0.019093299
-0.45119199 0.21478701 0.019093299
-0.446962 0.223381 0.019093299
-0.44685501 0.22360501 0.019093299
-0.442536 0.23197401 0.019093299
-0.43826199 0.240061 0.019093299
-0.43799999 0.240568 0.019093299
-0.433103 0.24916101 0.019093299
-0.42966899 0.25508699 0.019093299
-0.42811799 0.25775501 0.019093299
-0.42263499 0.266348 0.019093299
-0.42107499 0.268933 0.019093299
-0.41726401 0.274941 0.019093299
-0.41248199 0.28203401 0.019093299
-0.41148499 0.283535 0.019093299
-0.40534201 0.292128 0.019093299
-0.40388799 0.29425299 0.019093299
-0.39913201 0.300722 0.019093299
-0.39529499 0.30580199 0.019093299
-0.392562 0.309315 0.019093299
-0.38670099 0.31655699 0.019093299
-0.385607 0.317909 0.019093299
-0.37823999 0.326502 0.019093299
-0.37810799 0.326657 0.019093299
-0.370547 0.33509499 0.019093299
-0.369515 0.33624399 0.019093299
-0.36258599 0.34368899 0.019093299
-0.360921 0.34544501 0.019093299
-0.35422701 0.35228199 0.019093299
-0.352328 0.35418299 0.019093299
-0.34551099 0.36087599 0.019093299
-0.343734 0.36256599 0.019093299
-0.33631501 0.36946899 0.019093299
-0.335141 0.37051901 0.019093299
-0.32668701 0.37806299 0.019093299
-0.326547 0.37818101 0.019093299
-0.317954 0.38546601 0.019093299
-0.316448 0.38665599 0.019093299
-0.30936101 0.39232999 0.019093299
-0.30555999 0.39524901 0.019093299
-0.300767 0.39889601 0.019093299
-0.29410201 0.40384299 0.019093299
-0.29217401 0.405204 0.019093299
-0.28358001 0.41149199 0.019093299
-0.282184 0.41243601 0.019093299
-0.27498701 0.41734901 0.019093299
-0.269225 0.42103001 0.019093299
-0.26639301 0.42268199 0.019093299
-0.25780001 0.42803901 0.019093299
-0.25502601 0.42962301 0.019093299
-0.249207 0.432998 0.019093299
-0.240613 0.43796 0.019093299
-0.24012899 0.43821701 0.019093299
-0.23202001 0.44253999 0.019093299
-0.223693 0.44681001 0.019093299
-0.223426 0.44693401 0.019093299
-0.21483301 0.45112601 0.019093299
-0.206239 0.45516801 0.019093299
-0.20570201 0.455403 0.019093299
-0.19764601 0.45885801 0.019093299
-0.189053 0.462524 0.019093299
-0.185265 0.46399701 0.019093299
-0.18045899 0.46588001 0.019093299
-0.171866 0.46932399 0.019093299
-0.16327199 0.472269 0.019093299
-0.162173 0.47259 0.019093299
-0.154679 0.47496399 0.019093299
-0.14608499 0.477824 0.019093299
-0.137492 0.480389 0.019093299
-0.13457599 0.48118401 0.019093299
-0.12889899 0.482741 0.019093299
-0.120305 0.485048 0.019093299
-0.111712 0.48714501 0.019093299
-0.103118 0.488969 0.019093299
-0.098838501 0.489777 0.019093299
-0.094524801 0.49059701 0.019093299
-0.085931301 0.49215901 0.019093299
-0.077337898 0.49355301 0.019093299
-0.068744503 0.49483699 0.019093299
-0.060151 0.49597201 0.019093299
-0.0515576 0.496952 0.019093299
-0.042964201 0.49779701 0.019093299
-0.0360405 0.49837101 0.019093299
-0.034370702 0.49849299 0.019093299
-0.025777301 0.49903399 0.019093299
-0.0171839 0.49941799 0.019093299
-0.0085904598 0.49965301 0.019093299
2.9800001e-06 0.49973699 0.019093299
0.499722 0.0085449796 0.019093299
0.49949801 0.017138399 0.019093299
0.49910599 0.025731901 0.019093299
0.49855399 0.034325201 0.019093299
0.498422 0.0360974 0.019093299
0.497866 0.042918701 0.019093299
0.49702901 0.0515121 0.019093299
0.49603701 0.060105599 0.019093299
