# .PCD v0.7 - Point Cloud Data file format
VERSION 0.7
FIELDS x y z
SIZE 4 4 4
TYPE F F F
COUNT 1 1 1
WIDTH 1489
HEIGHT 1
VIEWPOINT 0 0 0 1 0 0 0
POINTS 1489
DATA ascii
-0.137492 -0.15473001 0.45711699
-0.16327199 -0.146137 0.45123699
-0.154679 -0.146137 0.454494
-0.16327199 -0.13754299 0.454137
-0.154679 -0.13754299 0.457111
-0.14608499 -0.146137 0.457261
-0.085931301 -0.20629101 0.449108
-0.077337898 -0.20629101 0.450627
-0.068744503 -0.20629101 0.45210901
-0.060151 -0.214884 0.44926399
-0.0515576 -0.214884 0.45028901
-0.060151 -0.20629101 0.45345801
-0.0515576 -0.20629101 0.454606
-0.042964201 -0.214884 0.45121601
-0.034370702 -0.214884 0.45201299
-0.042964201 -0.20629101 0.45550299
-0.034370702 -0.20629101 0.456195
-0.0171839 -0.223478 0.448816
-0.0085904598 -0.223478 0.44903901
2.9800001e-06 -0.223478 0.449108
-0.025777301 -0.214884 0.45263499
-0.0171839 -0.214884 0.45308301
-0.025777301 -0.20629101 0.456718
-0.0171839 -0.20629101 0.457095
-0.0085904598 -0.214884 0.453354
2.9800001e-06 -0.214884 0.45343301
-0.0085904598 -0.20629101 0.45731899
-0.120305 -0.18910401 0.4488
-0.103118 -0.197697 0.44932899
-0.111712 -0.18910401 0.450966
-0.103118 -0.18910401 0.45319301
-0.12889899 -0.180511 0.449902
-0.120305 -0.180511 0.452393
-0.12889899 -0.17191701 0.45345101
-0.120305 -0.17191701 0.455919
-0.111712 -0.180511 0.45476201
-0.103118 -0.180511 0.456743
-0.094524801 -0.197697 0.45122001
-0.085931301 -0.197697 0.45309001
-0.094524801 -0.18910401 0.45516601
-0.085931301 -0.18910401 0.45681599
-0.077337898 -0.197697 0.45477101
-0.068744503 -0.197697 0.456135
-0.12889899 -0.163324 0.45668101
-0.060151 -0.197697 0.45725301
-0.206239 -0.0859828 0.44910699
-0.206239 -0.0773893 0.450616
-0.206239 -0.068795897 0.45210499
-0.189053 -0.120357 0.44879299
-0.18045899 -0.12895 0.44990501
-0.171866 -0.12895 0.453453
-0.18045899 -0.120357 0.45238599
-0.171866 -0.120357 0.45591801
-0.189053 -0.111763 0.450966
-0.19764601 -0.10317 0.44932401
-0.189053 -0.10317 0.453188
-0.18045899 -0.111763 0.45475101
-0.18045899 -0.10317 0.456743
-0.16327199 -0.12895 0.45667699
-0.19764601 -0.094576202 0.45122099
-0.189053 -0.094576202 0.45517099
-0.19764601 -0.0859828 0.45308399
-0.189053 -0.0859828 0.45681599
-0.19764601 -0.0773893 0.45475599
-0.19764601 -0.068795897 0.45612699
-0.21483301 -0.060202502 0.44925901
-0.206239 -0.060202502 0.45345199
-0.21483301 -0.051608998 0.45028201
-0.206239 -0.051608998 0.45459801
-0.21483301 -0.043015599 0.45120901
-0.206239 -0.043015599 0.455495
-0.21483301 -0.0344222 0.45200199
-0.206239 -0.0344222 0.45618501
-0.223426 -0.0172353 0.44881001
-0.21483301 -0.025828799 0.452636
-0.206239 -0.025828799 0.456716
-0.21483301 -0.0172353 0.45307201
-0.206239 -0.0172353 0.45708799
-0.223426 -0.0086418996 0.44903499
-0.223426 -4.8459999e-05 0.44910499
-0.21483301 -0.0086418996 0.453345
-0.206239 -0.0086418996 0.457313
-0.21483301 -4.8459999e-05 0.453437
-0.19764601 -0.060202502 0.457243
-0.068744503 -0.120357 0.456453
-0.103118 -0.0859828 0.452337
-0.120305 -0.068795897 0.45647699
0.0085964203 -0.223478 0.449036
0.017189899 -0.223478 0.44881901
0.0085964203 -0.214884 0.453356
0.017189899 -0.214884 0.453082
0.0085964203 -0.20629101 0.45731801
0.017189899 -0.20629101 0.45709699
0.0257833 -0.214884 0.45263499
0.034376699 -0.214884 0.45201501
0.0257833 -0.20629101 0.456718
0.034376699 -0.20629101 0.456193
0.042970099 -0.214884 0.451215
0.051563598 -0.214884 0.45028999
0.042970099 -0.20629101 0.45550501
0.051563598 -0.20629101 0.45460799
0.060157001 -0.214884 0.449265
0.060157001 -0.20629101 0.453453
0.068750396 -0.20629101 0.45211199
0.077343903 -0.20629101 0.45062801
0.085937299 -0.20629101 0.449112
0.060157001 -0.197697 0.45725301
0.068750396 -0.197697 0.45613
0.077343903 -0.197697 0.45476699
0.085937299 -0.197697 0.45309401
0.085937299 -0.18910401 0.456817
0.094530702 -0.197697 0.45122099
0.103124 -0.197697 0.44933099
0.094530702 -0.18910401 0.45516601
0.103124 -0.18910401 0.453192
0.103124 -0.180511 0.456743
0.111718 -0.18910401 0.45096499
0.120311 -0.18910401 0.44879901
0.111718 -0.180511 0.454759
0.120311 -0.180511 0.45238999
0.120311 -0.17191701 0.45591399
0.128904 -0.180511 0.4499
0.128904 -0.17191701 0.453446
0.13749801 -0.17191701 0.450726
0.128904 -0.163324 0.45667601
0.13749801 -0.163324 0.45414501
0.13749801 -0.15473001 0.45711601
0.146091 -0.163324 0.45123601
0.146091 -0.15473001 0.454501
0.15468501 -0.15473001 0.45140499
0.146091 -0.146137 0.45726001
0.15468501 -0.146137 0.454494
0.15468501 -0.13754299 0.45710999
0.163278 -0.146137 0.451235
0.163278 -0.13754299 0.454133
0.171872 -0.13754299 0.45072201
0.068750396 -0.120357 0.45647699
0.103124 -0.0859828 0.452299
0.120311 -0.068795897 0.45646399
0.163278 -0.12895 0.45667201
0.171872 -0.12895 0.453455
0.171872 -0.120357 0.45591101
0.180465 -0.12895 0.449902
0.180465 -0.120357 0.452373
0.18905801 -0.120357 0.44879001
0.180465 -0.111763 0.45474401
0.18905801 -0.111763 0.450966
0.180465 -0.10317 0.456743
0.18905801 -0.10317 0.453181
0.197652 -0.10317 0.44932801
0.18905801 -0.094576202 0.45517099
0.18905801 -0.0859828 0.45681399
0.197652 -0.094576202 0.451224
0.197652 -0.0859828 0.45308101
0.20624501 -0.0859828 0.44910401
0.197652 -0.0773893 0.45475599
0.20624501 -0.0773893 0.45061499
0.197652 -0.068795897 0.45612699
0.20624501 -0.068795897 0.45210001
0.197652 -0.060202502 0.457243
0.20624501 -0.060202502 0.453448
0.20624501 -0.051608998 0.45459899
0.20624501 -0.043015599 0.45549399
0.20624501 -0.0344222 0.456182
0.20624501 -0.025828799 0.45671499
0.20624501 -0.0172353 0.45708701
0.20624501 -0.0086418996 0.45730999
0.214839 -0.060202502 0.44925499
0.214839 -0.051608998 0.45028099
0.214839 -0.043015599 0.45120499
0.214839 -0.0344222 0.45200199
0.214839 -0.025828799 0.45262799
0.214839 -0.0172353 0.45307201
0.223432 -0.0172353 0.44880801
0.214839 -0.0086418996 0.453345
0.223432 -0.0086418996 0.44903001
0.214839 -4.8459999e-05 0.45342499
0.223432 -4.8459999e-05 0.44910899
-0.223426 0.0085449796 0.44903201
-0.223426 0.017138399 0.44880801
-0.21483301 0.0085449796 0.45334199
-0.206239 0.0085449796 0.45731199
-0.21483301 0.017138399 0.45307499
-0.206239 0.017138399 0.45708901
-0.21483301 0.025731901 0.45262399
-0.206239 0.025731901 0.456709
-0.21483301 0.034325201 0.45200399
-0.206239 0.034325201 0.456184
-0.21483301 0.042918701 0.45119801
-0.206239 0.042918701 0.45548999
-0.21483301 0.0515121 0.450277
-0.206239 0.0515121 0.45459601
-0.21483301 0.060105599 0.44925699
-0.206239 0.060105599 0.453446
-0.206239 0.068699002 0.45209801
-0.19764601 0.060105599 0.457239
-0.19764601 0.068699002 0.45612201
-0.206239 0.077292398 0.450618
-0.206239 0.085885897 0.44909701
-0.19764601 0.077292398 0.45475501
-0.19764601 0.085885897 0.453078
-0.189053 0.085885897 0.456808
-0.19764601 0.0944793 0.451213
-0.189053 0.0944793 0.455158
-0.19764601 0.103073 0.449321
-0.189053 0.103073 0.45317999
-0.18045899 0.103073 0.45673499
-0.189053 0.111666 0.45096201
-0.189053 0.12026 0.44878799
-0.18045899 0.111666 0.45474499
-0.18045899 0.12026 0.45237699
-0.171866 0.12026 0.45590201
-0.18045899 0.12885299 0.44988501
-0.171866 0.12885299 0.453437
-0.171866 0.137446 0.45071301
-0.16327199 0.12885299 0.456671
-0.16327199 0.137446 0.45413601
-0.154679 0.137446 0.45710701
-0.120305 0.068699002 0.45651099
-0.085931301 0.103073 0.45230299
-0.068744503 0.12026 0.45648599
-0.16327199 0.14603999 0.451224
-0.154679 0.14603999 0.45448899
-0.154679 0.154633 0.45139399
-0.14608499 0.14603999 0.45724499
-0.14608499 0.154633 0.45448801
-0.137492 0.154633 0.457113
-0.14608499 0.16322701 0.45122701
-0.137492 0.16322701 0.45412999
-0.137492 0.17182 0.45070601
-0.12889899 0.16322701 0.456664
-0.12889899 0.17182 0.45344299
-0.120305 0.17182 0.45589799
-0.12889899 0.18041401 0.44988099
-0.120305 0.18041401 0.45236501
-0.120305 0.189007 0.44878399
-0.111712 0.18041401 0.45473799
-0.103118 0.18041401 0.45672801
-0.111712 0.189007 0.45095599
-0.103118 0.189007 0.453168
-0.103118 0.19760001 0.449323
-0.094524801 0.189007 0.45515999
-0.085931301 0.189007 0.45680499
-0.094524801 0.19760001 0.45120701
-0.085931301 0.19760001 0.453076
-0.085931301 0.206194 0.44909599
-0.077337898 0.19760001 0.45475399
-0.068744503 0.19760001 0.456117
-0.077337898 0.206194 0.45061001
-0.068744503 0.206194 0.45208699
-0.060151 0.19760001 0.457234
-0.060151 0.206194 0.45343599
-0.0515576 0.206194 0.454586
-0.042964201 0.206194 0.45548701
-0.034370702 0.206194 0.45617601
-0.025777301 0.206194 0.45670301
-0.0171839 0.206194 0.45707899
-0.0085904598 0.206194 0.457304
-0.060151 0.21478701 0.449249
-0.0515576 0.21478701 0.45026401
-0.042964201 0.21478701 0.451197
-0.034370702 0.21478701 0.451996
-0.025777301 0.21478701 0.45261601
-0.0171839 0.21478701 0.45306301
-0.0171839 0.223381 0.44880101
-0.0085904598 0.21478701 0.45332801
2.9800001e-06 0.21478701 0.453417
-0.0085904598 0.223381 0.44901699
2.9800001e-06 0.223381 0.44910201
0.120311 0.068699002 0.456507
0.085937299 0.103073 0.45228499
0.068750396 0.12026 0.45652199
0.20624501 0.0085449796 0.45730901
0.20624501 0.017138399 0.457086
0.20624501 0.025731901 0.45670801
0.20624501 0.034325201 0.456182
0.20624501 0.042918701 0.45548901
0.20624501 0.0515121 0.454593
0.197652 0.060105599 0.45723701
0.20624501 0.060105599 0.45344201
0.197652 0.068699002 0.456119
0.20624501 0.068699002 0.45209
0.214839 0.0085449796 0.45334199
0.223432 0.0085449796 0.449031
0.214839 0.017138399 0.45307499
0.223432 0.017138399 0.44880599
0.214839 0.025731901 0.452618
0.214839 0.034325201 0.45200101
0.214839 0.042918701 0.451197
0.214839 0.0515121 0.45027199
0.214839 0.060105599 0.449258
0.18905801 0.085885897 0.45680499
0.197652 0.077292398 0.45475301
0.20624501 0.077292398 0.45061401
0.197652 0.085885897 0.45307699
0.20624501 0.085885897 0.449099
0.18905801 0.0944793 0.455158
0.180465 0.103073 0.45673701
0.18905801 0.103073 0.45317599
0.197652 0.0944793 0.45120901
0.197652 0.103073 0.44932401
0.171872 0.12026 0.45590001
0.15468501 0.137446 0.457102
0.163278 0.12885299 0.45666701
0.171872 0.12885299 0.45343801
0.163278 0.137446 0.45412999
0.171872 0.137446 0.450712
0.180465 0.111666 0.454743
0.18905801 0.111666 0.450957
0.180465 0.12026 0.45236999
0.18905801 0.12026 0.44878501
0.180465 0.12885299 0.449882
0.0085964203 0.206194 0.45730299
0.017189899 0.206194 0.45708099
0.0257833 0.206194 0.45670301
0.034376699 0.206194 0.45617399
0.042970099 0.206194 0.455486
0.051563598 0.206194 0.454593
0.060157001 0.19760001 0.457234
0.068750396 0.19760001 0.45611301
0.060157001 0.206194 0.45343101
0.068750396 0.206194 0.45207801
0.13749801 0.154633 0.45710099
0.120311 0.17182 0.45589399
0.128904 0.16322701 0.456664
0.13749801 0.16322701 0.454126
0.128904 0.17182 0.45343599
0.13749801 0.17182 0.45070699
0.085937299 0.189007 0.45680401
0.103124 0.18041401 0.45673099
0.094530702 0.189007 0.45516199
0.103124 0.189007 0.45317599
0.077343903 0.19760001 0.454748
0.085937299 0.19760001 0.453078
0.077343903 0.206194 0.450607
0.085937299 0.206194 0.44909301
0.094530702 0.19760001 0.45120701
0.103124 0.19760001 0.44932899
0.111718 0.18041401 0.45473799
0.120311 0.18041401 0.45236301
0.111718 0.189007 0.45095801
0.120311 0.189007 0.448782
0.128904 0.18041401 0.449875
0.0085964203 0.21478701 0.453329
0.017189899 0.21478701 0.45306799
0.0085964203 0.223381 0.449027
0.017189899 0.223381 0.44879499
0.0257833 0.21478701 0.45261899
0.034376699 0.21478701 0.45199499
0.042970099 0.21478701 0.451197
0.051563598 0.21478701 0.45027101
0.060157001 0.21478701 0.449251
0.146091 0.14603999 0.457252
0.15468501 0.14603999 0.454485
0.146091 0.154633 0.45448801
0.15468501 0.154633 0.45139399
0.163278 0.14603999 0.45121801
0.146091 0.16322701 0.451215
-0.068744503 -0.17291801 0.46595201
-0.071284197 -0.17191701 0.46595201
-0.103118 -0.154992 0.46595201
-0.103516 -0.15473001 0.46595201
-0.120305 -0.142046 0.46595201
-0.125431 -0.13754299 0.46595201
-0.111712 -0.148912 0.46595201
-0.115319 -0.146137 0.46595201
-0.085931301 -0.165105 0.46595201
-0.089327604 -0.163324 0.46595201
-0.094524801 -0.16044299 0.46595201
-0.077337898 -0.16938999 0.46595201
-0.060151 -0.176268 0.46595201
-0.0515576 -0.178994 0.46595201
-0.042964201 -0.18104701 0.46595201
-0.0453435 -0.180511 0.46595201
-0.034370702 -0.182879 0.46595201
-0.025777301 -0.18447299 0.46595201
-0.0171839 -0.18556701 0.46595201
-0.0085904598 -0.18616299 0.46595201
2.9800001e-06 -0.186381 0.46595201
-0.042964201 -0.139605 0.46595201
-0.049297299 -0.13754299 0.46595201
-0.034370702 -0.14208101 0.46595201
-0.137492 -0.12549099 0.46595201
-0.14201 -0.120357 0.46595201
-0.154679 -0.103564 0.46595201
-0.15493301 -0.10317 0.46595201
-0.14608499 -0.115373 0.46595201
-0.14886899 -0.111763 0.46595201
-0.171866 -0.071325198 0.46595201
-0.172857 -0.068795897 0.46595201
-0.160365 -0.094576202 0.46595201
-0.16327199 -0.089334302 0.46595201
-0.165042 -0.0859828 0.46595201
-0.169349 -0.0773893 0.46595201
-0.176203 -0.060202502 0.46595201
-0.17893 -0.051608998 0.46595201
-0.18045899 -0.045321502 0.46595201
-0.180977 -0.043015599 0.46595201
-0.182818 -0.0344222 0.46595201
-0.137492 -0.049309399 0.46595201
-0.139512 -0.043015599 0.46595201
-0.141996 -0.0344222 0.46595201
-0.184396 -0.025828799 0.46595201
-0.185496 -0.0172353 0.46595201
-0.186105 -0.0086418996 0.46595201
-0.186304 -4.8459999e-05 0.46595201
-0.12889899 -0.13431101 0.46595201
-0.13426299 -0.12895 0.46595201
-0.103118 -0.10346 0.46595201
-0.103397 -0.10317 0.46595201
-0.077337898 -0.123928 0.46595201
-0.0829283 -0.120357 0.46595201
-0.068744503 -0.128938 0.46595201
-0.111152 -0.094576202 0.46595201
-0.111712 -0.093888901 0.46595201
-0.118109 -0.0859828 0.46595201
-0.120305 -0.082800701 0.46595201
-0.123804 -0.0773893 0.46595201
-0.128874 -0.068795897 0.46595201
0.0085964203 -0.186175 0.46595201
0.017189899 -0.185554 0.46595201
0.0257833 -0.184468 0.46595201
0.034376699 -0.182886 0.46595201
0.042970099 -0.18104801 0.46595201
0.0453601 -0.180511 0.46595201
0.051563598 -0.17898899 0.46595201
0.060157001 -0.17626099 0.46595201
0.068750396 -0.17293601 0.46595201
0.042970099 -0.13959999 0.46595201
0.034376699 -0.142102 0.46595201
0.049272198 -0.13754299 0.46595201
0.071335703 -0.17191701 0.46595201
0.077343903 -0.169396 0.46595201
0.085937299 -0.165112 0.46595201
0.089338899 -0.163324 0.46595201
0.094530702 -0.16044199 0.46595201
0.103124 -0.154989 0.46595201
0.103518 -0.15473001 0.46595201
0.111718 -0.148918 0.46595201
0.115339 -0.146137 0.46595201
0.120311 -0.142077 0.46595201
0.12546501 -0.13754299 0.46595201
0.077343903 -0.123924 0.46595201
0.068750396 -0.12892801 0.46595201
0.082916602 -0.120357 0.46595201
0.128904 -0.13433699 0.46595201
0.134299 -0.12895 0.46595201
0.13749801 -0.125531 0.46595201
0.103391 -0.10317 0.46595201
0.103124 -0.103448 0.46595201
0.111137 -0.094576202 0.46595201
0.111718 -0.093870603 0.46595201
0.118111 -0.0859828 0.46595201
0.123796 -0.0773893 0.46595201
0.120311 -0.082779899 0.46595201
0.12888101 -0.068795897 0.46595201
0.14203399 -0.120357 0.46595201
0.146091 -0.115362 0.46595201
0.148872 -0.111763 0.46595201
0.15468501 -0.103561 0.46595201
0.154939 -0.10317 0.46595201
0.160368 -0.094576202 0.46595201
0.163278 -0.089317903 0.46595201
0.16504399 -0.0859828 0.46595201
0.169361 -0.0773893 0.46595201
0.171872 -0.071386598 0.46595201
0.172884 -0.068795897 0.46595201
0.139497 -0.043015599 0.46595201
0.13749801 -0.049355499 0.46595201
0.14198899 -0.0344222 0.46595201
0.17620701 -0.060202502 0.46595201
0.178927 -0.051608998 0.46595201
0.180465 -0.045277499 0.46595201
0.18097501 -0.043015599 0.46595201
0.18281899 -0.0344222 0.46595201
0.184394 -0.025828799 0.46595201
0.1855 -0.0172353 0.46595201
0.186106 -0.0086418996 0.46595201
0.186303 -4.8459999e-05 0.46595201
-0.186103 0.0085449796 0.46595201
-0.185487 0.017138399 0.46595201
-0.18438999 0.025731901 0.46595201
-0.182813 0.034325201 0.46595201
-0.180976 0.042918701 0.46595201
-0.18045899 0.045227502 0.46595201
-0.17891499 0.0515121 0.46595201
-0.176186 0.060105599 0.46595201
-0.172855 0.068699002 0.46595201
-0.14202701 0.034325201 0.46595201
-0.139485 0.042918701 0.46595201
-0.137492 0.049167201 0.46595201
-0.171866 0.071208097 0.46595201
-0.169338 0.077292398 0.46595201
-0.165038 0.085885897 0.46595201
-0.16327199 0.089221701 0.46595201
-0.160339 0.0944793 0.46595201
-0.15491401 0.103073 0.46595201
-0.154679 0.103437 0.46595201
-0.14885101 0.111666 0.46595201
-0.14608499 0.11525 0.46595201
-0.141994 0.12026 0.46595201
-0.137492 0.12536 0.46595201
-0.128847 0.068699002 0.46595201
-0.123822 0.077292398 0.46595201
-0.120305 0.082770497 0.46595201
-0.103424 0.103073 0.46595201
-0.103118 0.103362 0.46595201
-0.134238 0.12885299 0.46595201
-0.12889899 0.13420799 0.46595201
-0.12542801 0.137446 0.46595201
-0.094524801 0.111047 0.46595201
-0.093764 0.111666 0.46595201
-0.085931301 0.11801 0.46595201
-0.082704298 0.12026 0.46595201
-0.077337898 0.123735 0.46595201
-0.068744503 0.12880599 0.46595201
-0.120305 0.14196301 0.46595201
-0.11529 0.14603999 0.46595201
-0.111712 0.148793 0.46595201
-0.103491 0.154633 0.46595201
-0.103118 0.15487701 0.46595201
-0.094524801 0.160312 0.46595201
-0.089233503 0.16322701 0.46595201
-0.085931301 0.16496301 0.46595201
-0.077337898 0.169275 0.46595201
-0.071282797 0.17182 0.46595201
-0.068744503 0.172811 0.46595201
-0.049189899 0.137446 0.46595201
-0.042964201 0.13941 0.46595201
-0.034370702 0.141928 0.46595201
-0.060151 0.17613401 0.46595201
-0.0515576 0.17885301 0.46595201
-0.0451493 0.18041401 0.46595201
-0.042964201 0.180904 0.46595201
-0.034370702 0.182741 0.46595201
-0.025777301 0.184312 0.46595201
-0.0171839 0.18541899 0.46595201
-0.0085904598 0.18602601 0.46595201
2.9800001e-06 0.18623701 0.46595201
0.128832 0.068699002 0.46595201
0.123787 0.077292398 0.46595201
0.120311 0.082780398 0.46595201
0.094530702 0.111038 0.46595201
0.093759596 0.111666 0.46595201
0.103124 0.103347 0.46595201
0.085937299 0.118004 0.46595201
0.077343903 0.123743 0.46595201
0.068750396 0.128775 0.46595201
0.0827135 0.12026 0.46595201
0.103415 0.103073 0.46595201
0.13749801 0.12537099 0.46595201
0.134259 0.12885299 0.46595201
0.128904 0.134214 0.46595201
0.12542599 0.137446 0.46595201
0.186106 0.0085449796 0.46595201
0.18548501 0.017138399 0.46595201
0.184387 0.025731901 0.46595201
0.182814 0.034325201 0.46595201
0.142013 0.034325201 0.46595201
0.139494 0.042918701 0.46595201
0.13749801 0.0492029 0.46595201
0.18097 0.042918701 0.46595201
0.180465 0.045167599 0.46595201
0.178912 0.0515121 0.46595201
0.176193 0.060105599 0.46595201
0.172874 0.068699002 0.46595201
0.171872 0.071249701 0.46595201
0.16934299 0.077292398 0.46595201
0.16503701 0.085885897 0.46595201
0.163278 0.089214198 0.46595201
0.16034301 0.0944793 0.46595201
0.15491 0.103073 0.46595201
0.15468501 0.103421 0.46595201
0.14885101 0.111666 0.46595201
0.146091 0.115244 0.46595201
0.14201 0.12026 0.46595201
0.042970099 0.139404 0.46595201
0.034376699 0.141968 0.46595201
0.049172498 0.137446 0.46595201
0.0085964203 0.186047 0.46595201
0.017189899 0.18540899 0.46595201
0.0257833 0.184324 0.46595201
0.034376699 0.182743 0.46595201
0.051563598 0.178847 0.46595201
0.045157999 0.18041401 0.46595201
0.042970099 0.18090101 0.46595201
0.060157001 0.17612199 0.46595201
0.068750396 0.17281701 0.46595201
0.077343903 0.16929901 0.46595201
0.071302801 0.17182 0.46595201
0.085937299 0.164984 0.46595201
0.094530702 0.160304 0.46595201
0.089246303 0.16322701 0.46595201
0.103124 0.154861 0.46595201
0.120311 0.14196099 0.46595201
0.115296 0.14603999 0.46595201
0.111718 0.14878801 0.46595201
0.103472 0.154633 0.46595201
-0.025777301 -0.143987 0.46595201
-0.0171839 -0.145335 0.46595201
2.9800001e-06 -0.146321 0.46595201
-0.0077416301 -0.146137 0.46595201
-0.0085904598 -0.14609499 0.46595201
-0.143985 -0.025828799 0.46595201
-0.14526001 -0.0172353 0.46595201
-0.145982 -0.0086418996 0.46595201
-0.14608499 -0.0067207199 0.46595201
-0.14627101 -4.8459999e-05 0.46595201
-0.085931301 -0.118383 0.46595201
-0.094370298 -0.111763 0.46595201
-0.094524801 -0.111634 0.46595201
-0.060151 -0.133442 0.46595201
-0.068722598 -0.12895 0.46595201
-0.0515576 -0.136795 0.46595201
-0.12889899 -0.068752803 0.46595201
-0.13343 -0.060202502 0.46595201
-0.13673501 -0.051608998 0.46595201
0.00768256 -0.146137 0.46595201
0.0085964203 -0.146091 0.46595201
0.017189899 -0.145335 0.46595201
0.0257833 -0.144022 0.46595201
0.051563598 -0.136787 0.46595201
0.060157001 -0.13343801 0.46595201
0.068710797 -0.12895 0.46595201
0.085937299 -0.118363 0.46595201
0.094391897 -0.111763 0.46595201
0.094530702 -0.111647 0.46595201
0.128904 -0.068754099 0.46595201
0.133443 -0.060202502 0.46595201
0.136756 -0.051608998 0.46595201
0.144004 -0.025828799 0.46595201
0.14527801 -0.0172353 0.46595201
0.145992 -0.0086418996 0.46595201
0.146091 -0.0067763301 0.46595201
0.146276 -4.8459999e-05 0.46595201
-0.14608499 0.0074981502 0.46595201
-0.14602201 0.0085449796 0.46595201
-0.14521299 0.017138399 0.46595201
-0.14397401 0.025731901 0.46595201
-0.136733 0.0515121 0.46595201
-0.13339099 0.060105599 0.46595201
-0.12889899 0.068604998 0.46595201
-0.118259 0.085885897 0.46595201
-0.111712 0.094347902 0.46595201
-0.111603 0.0944793 0.46595201
-0.068659902 0.12885299 0.46595201
-0.060151 0.13333701 0.46595201
-0.0515576 0.136669 0.46595201
-0.025777301 0.143933 0.46595201
-0.0171839 0.145206 0.46595201
-0.0085904598 0.145942 0.46595201
-0.00681502 0.14603999 0.46595201
2.9800001e-06 0.14619499 0.46595201
0.13675 0.0515121 0.46595201
0.133416 0.060105599 0.46595201
0.128904 0.068569697 0.46595201
0.051563598 0.136663 0.46595201
0.068610303 0.12885299 0.46595201
0.060157001 0.133302 0.46595201
0.118279 0.085885897 0.46595201
0.111718 0.094350301 0.46595201
0.111611 0.0944793 0.46595201
0.146091 0.0072156801 0.46595201
0.146007 0.0085449796 0.46595201
0.14523099 0.017138399 0.46595201
0.143978 0.025731901 0.46595201
0.0085964203 0.145928 0.46595201
0.0064503001 0.14603999 0.46595201
0.017189899 0.145181 0.46595201
0.0257833 0.143939 0.46595201
-0.137492 -0.146137 0.45971099
-0.14608499 -0.13754299 0.459703
-0.137492 -0.13754299 0.46247
2.9800001e-06 -0.20629101 0.457385
-0.111712 -0.17191701 0.457899
-0.103118 -0.17191701 0.45980099
-0.077337898 -0.18910401 0.458186
-0.068744503 -0.18910401 0.45948201
-0.094524801 -0.180511 0.458408
-0.085931301 -0.180511 0.46001801
-0.094524801 -0.17191701 0.46170101
-0.085931301 -0.17191701 0.46349099
-0.077337898 -0.180511 0.46160299
-0.068744503 -0.180511 0.46307099
-0.077337898 -0.17191701 0.46504
-0.120305 -0.163324 0.45877999
-0.12889899 -0.15473001 0.45939299
-0.120305 -0.15473001 0.46178201
-0.111712 -0.163324 0.460942
-0.103118 -0.163324 0.463063
-0.111712 -0.15473001 0.46408001
-0.12889899 -0.146137 0.46228701
-0.120305 -0.146137 0.464719
-0.12889899 -0.13754299 0.46503401
-0.094524801 -0.163324 0.46496999
-0.0515576 -0.197697 0.45818999
-0.060151 -0.18910401 0.46068299
-0.0515576 -0.18910401 0.46176901
-0.042964201 -0.197697 0.45902801
-0.034370702 -0.197697 0.45973101
-0.042964201 -0.18910401 0.462726
-0.034370702 -0.18910401 0.46349099
-0.060151 -0.180511 0.46434501
-0.0515576 -0.180511 0.46537101
-0.025777301 -0.197697 0.460269
-0.0171839 -0.197697 0.46067101
-0.025777301 -0.18910401 0.46409601
-0.0171839 -0.18910401 0.46452701
-0.0085904598 -0.197697 0.46090201
2.9800001e-06 -0.197697 0.46098199
-0.0085904598 -0.18910401 0.46476999
2.9800001e-06 -0.18910401 0.46484801
-0.042964201 -0.13754299 0.46321201
-0.034370702 -0.13754299 0.46032599
-0.171866 -0.111763 0.457894
-0.171866 -0.10317 0.45979801
-0.154679 -0.12895 0.45939001
-0.16327199 -0.120357 0.458783
-0.154679 -0.120357 0.461786
-0.14608499 -0.12895 0.46227801
-0.137492 -0.12895 0.465036
-0.14608499 -0.120357 0.46472099
-0.16327199 -0.111763 0.460942
-0.154679 -0.111763 0.46407801
-0.16327199 -0.10317 0.46305799
-0.18045899 -0.094576202 0.458413
-0.171866 -0.094576202 0.46169499
-0.18045899 -0.0859828 0.46002099
-0.171866 -0.0859828 0.46348801
-0.189053 -0.0773893 0.45818099
-0.189053 -0.068795897 0.459483
-0.18045899 -0.0773893 0.46160299
-0.171866 -0.0773893 0.465042
-0.18045899 -0.068795897 0.46306601
-0.16327199 -0.094576202 0.46496001
-0.206239 -4.8459999e-05 0.45738199
-0.189053 -0.060202502 0.460677
-0.19764601 -0.051608998 0.458186
-0.189053 -0.051608998 0.461761
-0.18045899 -0.060202502 0.46433601
-0.18045899 -0.051608998 0.46536499
-0.19764601 -0.043015599 0.45902401
-0.189053 -0.043015599 0.46272299
-0.19764601 -0.0344222 0.45972401
-0.189053 -0.0344222 0.463485
-0.137492 -0.043015599 0.463258
-0.137492 -0.0344222 0.460347
-0.19764601 -0.025828799 0.46026501
-0.189053 -0.025828799 0.46408901
-0.19764601 -0.0172353 0.46066499
-0.189053 -0.0172353 0.46452099
-0.19764601 -0.0086418996 0.460897
-0.189053 -0.0086418996 0.464766
-0.19764601 -4.8459999e-05 0.46097699
-0.189053 -4.8459999e-05 0.46484101
-0.103118 -0.10317 0.46565199
-0.077337898 -0.120357 0.46186301
-0.103118 -0.094576202 0.458067
-0.111712 -0.0859828 0.45928901
-0.120305 -0.0773893 0.46193099
0.0085964203 -0.197697 0.46090701
0.017189899 -0.197697 0.46066999
0.0085964203 -0.18910401 0.464771
0.017189899 -0.18910401 0.464526
0.0257833 -0.197697 0.460271
0.034376699 -0.197697 0.459732
0.0257833 -0.18910401 0.464095
0.034376699 -0.18910401 0.46349099
0.042970099 -0.197697 0.45902801
0.051563598 -0.197697 0.45819199
0.042970099 -0.18910401 0.46272701
0.051563598 -0.18910401 0.461768
0.060157001 -0.18910401 0.46067899
0.068750396 -0.18910401 0.45948201
0.051563598 -0.180511 0.46537101
0.060157001 -0.180511 0.46434799
0.068750396 -0.180511 0.463065
0.034376699 -0.13754299 0.46029699
0.042970099 -0.13754299 0.46321601
0.077343903 -0.18910401 0.45818901
0.077343903 -0.180511 0.46160799
0.085937299 -0.180511 0.46002799
0.077343903 -0.17191701 0.465042
0.085937299 -0.17191701 0.46349001
0.094530702 -0.180511 0.458406
0.094530702 -0.17191701 0.46169901
0.103124 -0.17191701 0.45979899
0.111718 -0.17191701 0.457903
0.094530702 -0.163324 0.464968
0.103124 -0.163324 0.463061
0.111718 -0.163324 0.46094501
0.120311 -0.163324 0.45878199
0.111718 -0.15473001 0.46408299
0.120311 -0.15473001 0.461781
0.128904 -0.15473001 0.45940101
0.120311 -0.146137 0.464726
0.128904 -0.146137 0.46229801
0.13749801 -0.146137 0.45971599
0.128904 -0.13754299 0.46504101
0.13749801 -0.13754299 0.46246701
0.146091 -0.13754299 0.459712
0.077343903 -0.120357 0.46186501
0.13749801 -0.12895 0.46504799
0.103124 -0.10317 0.46566501
0.103124 -0.094576202 0.45805299
0.111718 -0.0859828 0.45927101
0.120311 -0.0773893 0.461907
0.146091 -0.12895 0.46228701
0.15468501 -0.12895 0.4594
0.146091 -0.120357 0.46472299
0.15468501 -0.120357 0.46178401
0.163278 -0.120357 0.458783
0.15468501 -0.111763 0.464075
0.163278 -0.111763 0.46093601
0.171872 -0.111763 0.457892
0.163278 -0.10317 0.46306199
0.171872 -0.10317 0.45978701
0.163278 -0.094576202 0.46496099
0.171872 -0.094576202 0.461689
0.171872 -0.0859828 0.46349001
0.171872 -0.0773893 0.46504101
0.180465 -0.094576202 0.458413
0.180465 -0.0859828 0.46002501
0.180465 -0.0773893 0.461597
0.18905801 -0.0773893 0.45818001
0.180465 -0.068795897 0.46306399
0.18905801 -0.068795897 0.45947999
0.13749801 -0.043015599 0.463267
0.13749801 -0.0344222 0.46033701
0.180465 -0.060202502 0.46433601
0.18905801 -0.060202502 0.46067601
0.180465 -0.051608998 0.46535999
0.18905801 -0.051608998 0.461757
0.197652 -0.051608998 0.458184
0.18905801 -0.043015599 0.46272001
0.18905801 -0.0344222 0.46348399
0.197652 -0.043015599 0.459021
0.197652 -0.0344222 0.45972499
0.18905801 -0.025828799 0.46408901
0.18905801 -0.0172353 0.46451801
0.197652 -0.025828799 0.46025801
0.197652 -0.0172353 0.46066201
0.18905801 -0.0086418996 0.46476501
0.18905801 -4.8459999e-05 0.46484399
0.197652 -0.0086418996 0.460897
0.197652 -4.8459999e-05 0.460969
0.20624501 -4.8459999e-05 0.45738199
-0.19764601 0.0085449796 0.46089399
-0.189053 0.0085449796 0.46476099
-0.19764601 0.017138399 0.460664
-0.189053 0.017138399 0.46452099
-0.19764601 0.025731901 0.46026599
-0.189053 0.025731901 0.46408999
-0.19764601 0.034325201 0.459723
-0.189053 0.034325201 0.46348101
-0.19764601 0.042918701 0.459021
-0.189053 0.042918701 0.46272099
-0.19764601 0.0515121 0.45818499
-0.189053 0.0515121 0.461752
-0.18045899 0.0515121 0.465359
-0.189053 0.060105599 0.46066901
-0.189053 0.068699002 0.45948201
-0.18045899 0.060105599 0.46433499
-0.18045899 0.068699002 0.463061
-0.137492 0.034325201 0.46033299
-0.137492 0.042918701 0.46327701
-0.189053 0.077292398 0.45818299
-0.18045899 0.077292398 0.461595
-0.171866 0.077292398 0.465036
-0.18045899 0.085885897 0.460015
-0.171866 0.085885897 0.46348399
-0.18045899 0.0944793 0.45840299
-0.171866 0.0944793 0.46169001
-0.171866 0.103073 0.45978901
-0.16327199 0.0944793 0.46495399
-0.16327199 0.103073 0.46305099
-0.171866 0.111666 0.45788899
-0.16327199 0.111666 0.46092999
-0.154679 0.111666 0.464073
-0.16327199 0.12026 0.45877701
-0.154679 0.12026 0.461779
-0.14608499 0.12026 0.464715
-0.154679 0.12885299 0.459396
-0.14608499 0.12885299 0.46228099
-0.137492 0.12885299 0.465031
-0.14608499 0.137446 0.45970199
-0.137492 0.137446 0.462459
-0.120305 0.077292398 0.461925
-0.103118 0.103073 0.465639
-0.12889899 0.137446 0.465036
-0.094524801 0.103073 0.45806101
-0.085931301 0.111666 0.459317
-0.077337898 0.12026 0.46192601
-0.137492 0.14603999 0.45970801
-0.12889899 0.14603999 0.46227399
-0.120305 0.14603999 0.464717
-0.12889899 0.154633 0.45939901
-0.120305 0.154633 0.461777
-0.111712 0.154633 0.464064
-0.120305 0.16322701 0.458772
-0.111712 0.16322701 0.46092701
-0.103118 0.16322701 0.46305799
-0.111712 0.17182 0.45788601
-0.103118 0.17182 0.45978001
-0.094524801 0.16322701 0.464959
-0.094524801 0.17182 0.46168399
-0.085931301 0.17182 0.46347699
-0.077337898 0.17182 0.465029
-0.094524801 0.18041401 0.45840499
-0.085931301 0.18041401 0.46001101
-0.077337898 0.18041401 0.46158701
-0.068744503 0.18041401 0.46305501
-0.077337898 0.189007 0.45817199
-0.068744503 0.189007 0.45946899
-0.042964201 0.137446 0.463301
-0.034370702 0.137446 0.46036801
-0.060151 0.18041401 0.46432501
-0.0515576 0.18041401 0.465352
-0.060151 0.189007 0.460664
-0.0515576 0.189007 0.46174699
-0.042964201 0.189007 0.46270999
-0.034370702 0.189007 0.46347499
-0.0515576 0.19760001 0.45817801
-0.042964201 0.19760001 0.45901299
-0.034370702 0.19760001 0.45971599
-0.025777301 0.189007 0.46408001
-0.0171839 0.189007 0.46451101
-0.0085904598 0.189007 0.46475601
2.9800001e-06 0.189007 0.46483999
-0.025777301 0.19760001 0.46024799
-0.0171839 0.19760001 0.46065
-0.0085904598 0.19760001 0.46088701
2.9800001e-06 0.19760001 0.46095401
2.9800001e-06 0.206194 0.45737499
0.120311 0.077292398 0.461925
0.085937299 0.111666 0.45932001
0.094530702 0.103073 0.458058
0.103124 0.103073 0.465653
0.077343903 0.12026 0.46193001
0.13749801 0.12885299 0.46503499
0.128904 0.137446 0.46503699
0.13749801 0.137446 0.46246001
0.18905801 0.0085449796 0.46476001
0.18905801 0.017138399 0.46452001
0.197652 0.0085449796 0.46089399
0.197652 0.017138399 0.460664
0.18905801 0.025731901 0.46408999
0.18905801 0.034325201 0.46347901
0.197652 0.025731901 0.460262
0.197652 0.034325201 0.45972201
0.13749801 0.034325201 0.46032801
0.13749801 0.042918701 0.46326599
0.18905801 0.042918701 0.46271899
0.180465 0.0515121 0.46535501
0.18905801 0.0515121 0.46175
0.197652 0.042918701 0.45901901
0.197652 0.0515121 0.45818201
0.180465 0.060105599 0.464331
0.18905801 0.060105599 0.46066701
0.180465 0.068699002 0.463061
0.18905801 0.068699002 0.45947999
0.171872 0.077292398 0.465036
0.171872 0.085885897 0.463485
0.163278 0.0944793 0.46495199
0.171872 0.0944793 0.46169201
0.163278 0.103073 0.46305299
0.171872 0.103073 0.45977801
0.180465 0.077292398 0.461595
0.18905801 0.077292398 0.45818201
0.180465 0.085885897 0.46002501
0.180465 0.0944793 0.458404
0.15468501 0.111666 0.46406901
0.146091 0.12026 0.464717
0.15468501 0.12026 0.46177199
0.163278 0.111666 0.46092701
0.171872 0.111666 0.45788601
0.163278 0.12026 0.45877299
0.146091 0.12885299 0.46227601
0.15468501 0.12885299 0.45939201
0.146091 0.137446 0.45970199
0.034376699 0.137446 0.46034601
0.042970099 0.137446 0.46329999
0.0085964203 0.189007 0.46476099
0.017189899 0.189007 0.464508
0.0257833 0.189007 0.46408799
0.034376699 0.189007 0.46347499
0.0085964203 0.19760001 0.460888
0.017189899 0.19760001 0.46065101
0.0257833 0.19760001 0.46025199
0.034376699 0.19760001 0.45971599
0.051563598 0.18041401 0.46535099
0.042970099 0.189007 0.46270299
0.051563598 0.189007 0.46174699
0.060157001 0.18041401 0.46432701
0.068750396 0.18041401 0.46304399
0.060157001 0.189007 0.46066001
0.068750396 0.189007 0.45946699
0.042970099 0.19760001 0.45901099
0.051563598 0.19760001 0.458179
0.077343903 0.17182 0.465038
0.085937299 0.17182 0.46348199
0.094530702 0.16322701 0.46495399
0.103124 0.16322701 0.46305701
0.094530702 0.17182 0.461689
0.103124 0.17182 0.459777
0.120311 0.14603999 0.46471801
0.111718 0.154633 0.46406299
0.120311 0.154633 0.46176901
0.128904 0.14603999 0.462275
0.13749801 0.14603999 0.45970199
0.128904 0.154633 0.45939201
0.111718 0.16322701 0.46092701
0.120311 0.16322701 0.45876899
0.111718 0.17182 0.457883
0.077343903 0.18041401 0.46159101
0.085937299 0.18041401 0.46002501
0.077343903 0.189007 0.45817101
0.094530702 0.18041401 0.45840299
-0.0171839 -0.13754299 0.456613
2.9800001e-06 -0.13754299 0.455459
-0.137492 -0.0172353 0.45662999
-0.137492 -4.8459999e-05 0.45549899
-0.085931301 -0.10317 0.452218
-0.0515576 -0.120357 0.44929001
-0.120305 -0.051608998 0.44929299
0.017189899 -0.13754299 0.456604
0.051563598 -0.120357 0.449285
0.085937299 -0.10317 0.45218101
0.120311 -0.051608998 0.44928199
0.13749801 -0.0172353 0.45661199
0.13749801 -4.8459999e-05 0.45549399
-0.137492 0.017138399 0.45663601
-0.120305 0.0515121 0.44930401
-0.103118 0.085885897 0.45219299
-0.0515576 0.12026 0.44930601
-0.0171839 0.137446 0.45665199
2.9800001e-06 0.137446 0.45553499
0.13749801 0.017138399 0.45662701
0.120311 0.0515121 0.44931099
0.017189899 0.137446 0.45664701
0.051563598 0.12026 0.449314
0.103124 0.085885897 0.45218101
-0.025777301 -0.141298 0.46295899
-0.0084489603 -0.143162 0.46264601
-0.14124499 -0.025828799 0.462966
-0.143097 -0.0083216997 0.46265599
-0.094498999 -0.108597 0.463613
-0.077403799 -0.114581 0.45716599
-0.113744 -0.079133198 0.45741799
-0.097415797 -0.094891503 0.45473799
-0.062603198 -0.12716 0.460987
-0.044849601 -0.130825 0.45746601
-0.12710799 -0.062651597 0.460991
-0.130775 -0.0448961 0.45747599
0.0084441304 -0.143162 0.46264499
0.0257833 -0.14130899 0.462951
0.0448629 -0.13083 0.45746201
0.062606603 -0.12715299 0.46099001
0.0774142 -0.114579 0.45716399
0.094507597 -0.108593 0.46360901
0.097432598 -0.094905697 0.45472699
0.113756 -0.0791438 0.45740899
0.12711801 -0.062651701 0.460987
0.130788 -0.044911101 0.45747399
0.14125299 -0.025828799 0.46296099
0.143106 -0.0083309403 0.462652
-0.143096 0.0083705196 0.462657
-0.14124 0.025731901 0.46296501
-0.13077401 0.044796001 0.45747799
-0.127093 0.062547497 0.46099699
-0.114514 0.077337399 0.457178
-0.108539 0.094457403 0.463606
-0.094843902 0.097382598 0.45472601
-0.079084799 0.113691 0.45741799
-0.062594198 0.127048 0.46099401
-0.044831801 0.130723 0.45748699
-0.025777301 0.141192 0.462975
-0.00829452 0.14304601 0.462666
0.130785 0.044800501 0.457477
0.12710001 0.062542401 0.460998
0.0448386 0.130724 0.45748499
0.062592298 0.127032 0.461
0.094856396 0.097389199 0.45472401
0.114529 0.077348098 0.457176
0.108545 0.094457798 0.46360701
0.079088897 0.11369 0.457421
0.14309999 0.0083234301 0.46265501
0.14124399 0.025731901 0.462962
0.0082386704 0.143039 0.46266499
0.0257833 0.141196 0.46296999
-0.085931301 -0.138156 0.474545
-0.086979702 -0.13754299 0.474545
-0.068744503 -0.147337 0.474545
-0.071682699 -0.146137 0.474545
-0.077337898 -0.14333899 0.474545
-0.042964201 -0.156627 0.474545
-0.050444402 -0.15473001 0.474545
-0.034370702 -0.158985 0.474545
-0.060151 -0.151274 0.474545
-0.0515576 -0.15444 0.474545
-0.0515576 -0.139847 0.474545
-0.057832401 -0.13754299 0.474545
-0.042964201 -0.143134 0.474545
-0.034370702 -0.1454 0.474545
-0.025777301 -0.16091999 0.474545
-0.0171839 -0.16215301 0.474545
-0.0085904598 -0.162784 0.474545
2.9800001e-06 -0.162939 0.474545
-0.025777301 -0.146786 0.474545
-0.029962201 -0.146137 0.474545
-0.0171839 -0.148058 0.474545
-0.0085904598 -0.148864 0.474545
2.9800001e-06 -0.149002 0.474545
-0.137492 -0.087063603 0.474545
-0.13808399 -0.0859828 0.474545
-0.14326499 -0.0773893 0.474545
-0.14608499 -0.071763903 0.474545
-0.147291 -0.068795897 0.474545
-0.15123001 -0.060202502 0.474545
-0.15437099 -0.051608998 0.474545
-0.137492 -0.057909399 0.474545
-0.139763 -0.051608998 0.474545
-0.154679 -0.050425898 0.474545
-0.15657 -0.043015599 0.474545
-0.15890899 -0.0344222 0.474545
-0.143003 -0.043015599 0.474545
-0.145322 -0.0344222 0.474545
-0.16087499 -0.025828799 0.474545
-0.162101 -0.0172353 0.474545
-0.14608499 -0.030284099 0.474545
-0.146817 -0.025828799 0.474545
-0.14799 -0.0172353 0.474545
-0.16271301 -0.0086418996 0.474545
-0.16288 -4.8459999e-05 0.474545
-0.14872999 -0.0086418996 0.474545
-0.14902 -4.8459999e-05 0.474545
-0.103118 -0.125929 0.474545
-0.109584 -0.120357 0.474545
-0.120305 -0.109606 0.474545
-0.125836 -0.10317 0.474545
-0.111712 -0.118374 0.474545
-0.118343 -0.111763 0.474545
-0.103118 -0.107702 0.474545
-0.107708 -0.10317 0.474545
-0.094524801 -0.132378 0.474545
-0.099197403 -0.12895 0.474545
-0.085931301 -0.121783 0.474545
-0.088017702 -0.120357 0.474545
-0.068744503 -0.13224301 0.474545
-0.075061098 -0.12895 0.474545
-0.077337898 -0.127671 0.474545
-0.094524801 -0.115235 0.474545
-0.098655999 -0.111763 0.474545
-0.12889899 -0.099249899 0.474545
-0.132393 -0.094576202 0.474545
-0.120305 -0.088024102 0.474545
-0.121706 -0.0859828 0.474545
-0.111712 -0.098851599 0.474545
-0.115249 -0.094576202 0.474545
-0.127571 -0.0773893 0.474545
-0.12889899 -0.075014003 0.474545
-0.132231 -0.068795897 0.474545
-0.060151 -0.13661601 0.474545
-0.13660599 -0.060202502 0.474545
0.0085964203 -0.162772 0.474545
0.017189899 -0.162184 0.474545
0.0257833 -0.160908 0.474545
0.034376699 -0.15892699 0.474545
0.0085964203 -0.148819 0.474545
0.017189899 -0.148077 0.474545
0.0257833 -0.146814 0.474545
0.030133 -0.146137 0.474545
0.034376699 -0.14542 0.474545
0.042970099 -0.15663099 0.474545
0.050472401 -0.15473001 0.474545
0.051563598 -0.15444501 0.474545
0.042970099 -0.14310201 0.474545
0.051563598 -0.139826 0.474545
0.060157001 -0.15130199 0.474545
0.068750396 -0.14732 0.474545
0.057822201 -0.13754299 0.474545
0.071633503 -0.146137 0.474545
0.077343903 -0.143317 0.474545
0.085937299 -0.138136 0.474545
0.086978003 -0.13754299 0.474545
0.060157001 -0.136613 0.474545
0.068750396 -0.132263 0.474545
0.075113803 -0.12895 0.474545
0.077343903 -0.127684 0.474545
0.085937299 -0.121758 0.474545
0.094530702 -0.132348 0.474545
0.099166602 -0.12895 0.474545
0.087991796 -0.120357 0.474545
0.103124 -0.125909 0.474545
0.094530702 -0.115209 0.474545
0.098651901 -0.111763 0.474545
0.103124 -0.107692 0.474545
0.109547 -0.120357 0.474545
0.111718 -0.118356 0.474545
0.118343 -0.111763 0.474545
0.107638 -0.10317 0.474545
0.120311 -0.109599 0.474545
0.125863 -0.10317 0.474545
0.111718 -0.098762698 0.474545
0.115259 -0.094576202 0.474545
0.120311 -0.088027999 0.474545
0.128904 -0.099299997 0.474545
0.132416 -0.094576202 0.474545
0.121687 -0.0859828 0.474545
0.13749801 -0.087011702 0.474545
0.127572 -0.0773893 0.474545
0.128904 -0.074979201 0.474545
0.132194 -0.068795897 0.474545
0.13662399 -0.060202502 0.474545
0.13749801 -0.057954099 0.474545
0.138073 -0.0859828 0.474545
0.14327399 -0.0773893 0.474545
0.146091 -0.071710199 0.474545
0.14727999 -0.068795897 0.474545
0.151225 -0.060202502 0.474545
0.13979 -0.051608998 0.474545
0.15440799 -0.051608998 0.474545
0.142974 -0.043015599 0.474545
0.15468501 -0.050545201 0.474545
0.14532 -0.0344222 0.474545
0.156552 -0.043015599 0.474545
0.158877 -0.0344222 0.474545
0.146091 -0.030406401 0.474545
0.146855 -0.025828799 0.474545
0.14799599 -0.0172353 0.474545
0.16090401 -0.025828799 0.474545
0.16210499 -0.0172353 0.474545
0.14872099 -0.0086418996 0.474545
0.149056 -4.8459999e-05 0.474545
0.16271199 -0.0086418996 0.474545
0.16288801 -4.8459999e-05 0.474545
-0.162699 0.0085449796 0.474545
-0.162119 0.017138399 0.474545
-0.148762 0.0085449796 0.474545
-0.147954 0.017138399 0.474545
-0.160863 0.025731901 0.474545
-0.158866 0.034325201 0.474545
-0.14679 0.025731901 0.474545
-0.14608499 0.0303057 0.474545
-0.145363 0.034325201 0.474545
-0.156578 0.042918701 0.474545
-0.154679 0.050395299 0.474545
-0.142968 0.042918701 0.474545
-0.154388 0.0515121 0.474545
-0.13975801 0.0515121 0.474545
-0.15122201 0.060105599 0.474545
-0.137492 0.057777099 0.474545
-0.14731701 0.068699002 0.474545
-0.14608499 0.071667403 0.474545
-0.143232 0.077292398 0.474545
-0.138052 0.085885897 0.474545
-0.137492 0.086874999 0.474545
-0.13655899 0.060105599 0.474545
-0.132174 0.068699002 0.474545
-0.12889899 0.075005502 0.474545
-0.127599 0.077292398 0.474545
-0.121659 0.085885897 0.474545
-0.13232701 0.0944793 0.474545
-0.120305 0.087889701 0.474545
-0.12889899 0.099143602 0.474545
-0.125824 0.103073 0.474545
-0.115146 0.0944793 0.474545
-0.111712 0.098609798 0.474545
-0.107777 0.103073 0.474545
-0.120305 0.109477 0.474545
-0.118282 0.111666 0.474545
-0.103118 0.107697 0.474545
-0.111712 0.118251 0.474545
-0.10951 0.12026 0.474545
-0.103118 0.125797 0.474545
-0.098708197 0.111666 0.474545
-0.094524801 0.115153 0.474545
-0.087895498 0.12026 0.474545
-0.099220403 0.12885299 0.474545
-0.085931301 0.12162 0.474545
-0.094524801 0.13225999 0.474545
-0.086908899 0.137446 0.474545
-0.077337898 0.127543 0.474545
-0.074934803 0.12885299 0.474545
-0.068744503 0.13212501 0.474545
-0.060151 0.136527 0.474545
-0.057759799 0.137446 0.474545
-0.085931301 0.13801099 0.474545
-0.077337898 0.143187 0.474545
-0.071618497 0.14603999 0.474545
-0.068744503 0.14722601 0.474545
-0.0515576 0.139687 0.474545
-0.060151 0.15113901 0.474545
-0.0515576 0.15432701 0.474545
-0.042964201 0.142892 0.474545
-0.034370702 0.14526699 0.474545
-0.050386898 0.154633 0.474545
-0.042964201 0.156489 0.474545
-0.034370702 0.15882599 0.474545
-0.030201601 0.14603999 0.474545
-0.025777301 0.146762 0.474545
-0.0171839 0.147927 0.474545
-0.0085904598 0.14865699 0.474545
2.9800001e-06 0.148912 0.474545
-0.025777301 0.160825 0.474545
-0.0171839 0.162034 0.474545
-0.0085904598 0.16264901 0.474545
2.9800001e-06 0.162828 0.474545
0.13749801 0.057804801 0.474545
0.13659 0.060105599 0.474545
0.13215099 0.068699002 0.474545
0.060157001 0.13648701 0.474545
0.057672001 0.137446 0.474545
0.068750396 0.132107 0.474545
0.128904 0.074869901 0.474545
0.127555 0.077292398 0.474545
0.121679 0.085885897 0.474545
0.120311 0.087908298 0.474545
0.115157 0.0944793 0.474545
0.111718 0.098614201 0.474545
0.107767 0.103073 0.474545
0.13749801 0.086840898 0.474545
0.13230699 0.0944793 0.474545
0.128904 0.099162303 0.474545
0.125833 0.103073 0.474545
0.103124 0.107672 0.474545
0.098608099 0.111666 0.474545
0.094530702 0.115067 0.474545
0.087899402 0.12026 0.474545
0.077343903 0.127562 0.474545
0.074994698 0.12885299 0.474545
0.085937299 0.121617 0.474545
0.103124 0.125801 0.474545
0.099212296 0.12885299 0.474545
0.094530702 0.13225199 0.474545
0.086897798 0.137446 0.474545
0.120311 0.109451 0.474545
0.118279 0.111666 0.474545
0.111718 0.118241 0.474545
0.109516 0.12026 0.474545
0.148748 0.0085449796 0.474545
0.14793 0.017138399 0.474545
0.16271199 0.0085449796 0.474545
0.16210601 0.017138399 0.474545
0.146809 0.025731901 0.474545
0.146091 0.0302817 0.474545
0.14535201 0.034325201 0.474545
0.160891 0.025731901 0.474545
0.15891001 0.034325201 0.474545
0.142976 0.042918701 0.474545
0.139764 0.0515121 0.474545
0.15468501 0.050469901 0.474545
0.154419 0.0515121 0.474545
0.156563 0.042918701 0.474545
0.151209 0.060105599 0.474545
0.147278 0.068699002 0.474545
0.146091 0.071572497 0.474545
0.143195 0.077292398 0.474545
0.138045 0.085885897 0.474545
0.0085964203 0.148662 0.474545
0.017189899 0.147866 0.474545
0.034376699 0.145309 0.474545
0.030476101 0.14603999 0.474545
0.0257833 0.14674699 0.474545
0.0085964203 0.16265 0.474545
0.017189899 0.162037 0.474545
0.0257833 0.160818 0.474545
0.034376699 0.158838 0.474545
0.042970099 0.14287999 0.474545
0.051563598 0.139652 0.474545
0.051563598 0.154319 0.474545
0.0503584 0.154633 0.474545
0.060157001 0.15113699 0.474545
0.068750396 0.14722 0.474545
0.042970099 0.15648299 0.474545
0.077343903 0.14317501 0.474545
0.071610004 0.14603999 0.474545
0.085937299 0.137999 0.474545
-0.068744503 -0.17191701 0.466313
-0.103118 -0.15473001 0.466034
-0.120305 -0.13754299 0.46725199
-0.111712 -0.146137 0.46678999
-0.103118 -0.146137 0.468748
-0.111712 -0.13754299 0.46939099
-0.103118 -0.13754299 0.47139099
-0.085931301 -0.163324 0.466555
-0.094524801 -0.15473001 0.467803
-0.085931301 -0.15473001 0.46948299
-0.077337898 -0.163324 0.46805301
-0.068744503 -0.163324 0.46940199
-0.077337898 -0.15473001 0.470983
-0.068744503 -0.15473001 0.47233501
-0.094524801 -0.146137 0.47059599
-0.085931301 -0.146137 0.47226599
-0.094524801 -0.13754299 0.473185
-0.077337898 -0.146137 0.47372001
-0.060151 -0.17191701 0.46748
-0.0515576 -0.17191701 0.468521
-0.042964201 -0.180511 0.466158
-0.034370702 -0.180511 0.46684599
-0.042964201 -0.17191701 0.46941301
-0.034370702 -0.17191701 0.47011501
-0.025777301 -0.180511 0.46740699
-0.0171839 -0.180511 0.46780601
-0.025777301 -0.17191701 0.47065401
-0.0171839 -0.17191701 0.47104999
-0.0085904598 -0.180511 0.46803999
2.9800001e-06 -0.180511 0.46811101
-0.0085904598 -0.17191701 0.471295
2.9800001e-06 -0.17191701 0.47135901
-0.060151 -0.163324 0.47058499
-0.0515576 -0.163324 0.471625
-0.060151 -0.15473001 0.473506
-0.0515576 -0.15473001 0.47444299
-0.042964201 -0.163324 0.47248799
-0.034370702 -0.163324 0.47319299
-0.0515576 -0.13754299 0.46726599
-0.025777301 -0.163324 0.473746
-0.0171839 -0.163324 0.47412899
-0.0085904598 -0.163324 0.47434601
2.9800001e-06 -0.163324 0.47440401
-0.025777301 -0.146137 0.47149399
-0.0171839 -0.146137 0.467446
-0.0085904598 -0.146137 0.466019
-0.137492 -0.120357 0.467251
-0.154679 -0.10317 0.46603301
-0.14608499 -0.111763 0.466793
-0.137492 -0.111763 0.46939501
-0.14608499 -0.10317 0.46875599
-0.137492 -0.10317 0.47139201
-0.171866 -0.068795897 0.46630999
-0.154679 -0.094576202 0.467803
-0.16327199 -0.0859828 0.46654999
-0.154679 -0.0859828 0.46948099
-0.14608499 -0.094576202 0.47060299
-0.137492 -0.094576202 0.473194
-0.14608499 -0.0859828 0.472258
-0.16327199 -0.0773893 0.468045
-0.154679 -0.0773893 0.47098601
-0.16327199 -0.068795897 0.46939701
-0.154679 -0.068795897 0.472332
-0.14608499 -0.0773893 0.47372201
-0.171866 -0.060202502 0.46748
-0.171866 -0.051608998 0.46852201
-0.18045899 -0.043015599 0.466151
-0.171866 -0.043015599 0.46940801
-0.18045899 -0.0344222 0.466842
-0.171866 -0.0344222 0.47011101
-0.16327199 -0.060202502 0.47058401
-0.154679 -0.060202502 0.47350201
-0.16327199 -0.051608998 0.47161999
-0.154679 -0.051608998 0.474437
-0.137492 -0.051608998 0.46727499
-0.16327199 -0.043015599 0.472482
-0.16327199 -0.0344222 0.47318801
-0.18045899 -0.025828799 0.467401
-0.171866 -0.025828799 0.470653
-0.18045899 -0.0172353 0.467801
-0.171866 -0.0172353 0.47104701
-0.18045899 -0.0086418996 0.468036
-0.171866 -0.0086418996 0.471288
-0.18045899 -4.8459999e-05 0.46810499
-0.171866 -4.8459999e-05 0.47135901
-0.16327199 -0.025828799 0.47374299
-0.16327199 -0.0172353 0.47412699
-0.14608499 -0.025828799 0.471201
-0.14608499 -0.0172353 0.46750399
-0.16327199 -0.0086418996 0.47433999
-0.16327199 -4.8459999e-05 0.47440001
-0.14608499 -0.0086418996 0.46612099
-0.12889899 -0.12895 0.46741301
-0.120305 -0.12895 0.46972299
-0.12889899 -0.120357 0.46971801
-0.120305 -0.120357 0.472022
-0.111712 -0.12895 0.471883
-0.103118 -0.12895 0.473777
-0.111712 -0.120357 0.474078
-0.12889899 -0.111763 0.471872
-0.120305 -0.111763 0.474076
-0.12889899 -0.10317 0.473768
-0.085931301 -0.120357 0.46958399
-0.068744503 -0.12895 0.46596801
-0.094524801 -0.111763 0.46611699
-0.120305 -0.0859828 0.46983001
-0.111712 -0.094576202 0.46658501
-0.12889899 -0.068795897 0.46598399
0.0085964203 -0.180511 0.46803501
0.017189899 -0.180511 0.46780801
0.0085964203 -0.17191701 0.47128499
