# .PCD v0.7 - Point Cloud Data file format
VERSION 0.7
FIELDS x y z
SIZE 4 4 4
TYPE F F F
COUNT 1 1 1
WIDTH 1561
HEIGHT 1
VIEWPOINT 0 0 0 1 0 0 0
POINTS 1561
DATA ascii
-0.29217401 0.39259401 0.105028
-0.28861701 0.39524901 0.105028
-0.27498701 0.40453199 0.105028
-0.26328599 0.41243601 0.105028
-0.25780001 0.41586 0.105028
-0.240613 0.426182 0.105028
-0.234432 0.42962301 0.105028
-0.223426 0.43514299 0.105028
-0.206239 0.44381499 0.105028
-0.199838 0.44681001 0.105028
-0.189053 0.45139799 0.105028
-0.171866 0.45819899 0.105028
-0.155976 0.46399701 0.105028
-0.154679 0.46444401 0.105028
-0.137492 0.46959299 0.105028
-0.120305 0.474352 0.105028
-0.103118 0.47850999 0.105028
-0.089932203 0.48118401 0.105028
-0.085931301 0.48198301 0.105028
-0.068744503 0.484878 0.105028
-0.0515576 0.48681301 0.105028
-0.034370702 0.488408 0.105028
-0.0171839 0.48932701 0.105028
2.9800001e-06 0.48951301 0.105028
0.48930499 0.017138399 0.105028
0.488561 0.034325201 0.105028
0.486857 0.0515121 0.105028
0.48482701 0.068699002 0.105028
0.481235 0.090330802 0.105028
0.47856599 0.103073 0.105028
0.47443801 0.12026 0.105028
0.469616 0.137446 0.105028
0.48213899 0.085885897 0.105028
0.41248801 0.26339701 0.105028
0.40461501 0.274941 0.105028
0.46450099 0.154633 0.105028
0.464048 0.156096 0.105028
0.45835701 0.17182 0.105028
0.446861 0.199993 0.105028
0.44393301 0.206194 0.105028
0.45139399 0.189007 0.105028
0.435166 0.223381 0.105028
0.42967501 0.23457 0.105028
0.42633 0.240568 0.105028
0.41591299 0.25775501 0.105028
0.274993 0.40452701 0.105028
0.26329499 0.41243601 0.105028
0.103124 0.478515 0.105028
0.089982703 0.48118401 0.105028
0.120311 0.474338 0.105028
0.13749801 0.46957001 0.105028
0.017189899 0.48941299 0.105028
0.034376699 0.48831499 0.105028
0.051563598 0.48683 0.105028
0.068750396 0.48486701 0.105028
0.085937299 0.481989 0.105028
0.20624501 0.44382799 0.105028
0.19987699 0.44681001 0.105028
0.171872 0.45827201 0.105028
0.156106 0.46399701 0.105028
0.15468501 0.46446601 0.105028
0.18905801 0.45135 0.105028
0.240619 0.42618901 0.105028
0.234437 0.42962301 0.105028
0.223432 0.43513799 0.105028
0.257806 0.41586 0.105028
0.39530101 0.28867301 0.105028
0.39273801 0.292128 0.105028
0.379228 0.309315 0.105028
0.37811401 0.31068301 0.105028
0.36429301 0.326502 0.105028
0.36092699 0.33024001 0.105028
0.34822899 0.34368899 0.105028
0.34373999 0.34817901 0.105028
0.33030099 0.36087599 0.105028
0.32655299 0.364254 0.105028
0.31071299 0.37806299 0.105028
0.29218 0.39259499 0.105028
0.288634 0.39524901 0.105028
0.309367 0.379163 0.105028
-0.29217401 -0.39534599 0.094378501
-0.39529499 -0.292225 0.093966402
-0.206239 -0.44690701 0.091399297
-0.240613 -0.42972001 0.090130001
-0.103118 -0.48128101 0.092438303
-0.42966899 -0.240665 0.089673601
-0.44685501 -0.20629101 0.091369502
-0.48122901 -0.10317 0.092448302
0.103124 -0.48128101 0.0923118
0.20624501 -0.44690701 0.091403097
0.240619 -0.42972001 0.090177298
0.29218 -0.39534599 0.094474003
0.39530101 -0.292225 0.093934901
0.42967501 -0.240665 0.089588203
0.446861 -0.20629101 0.091326199
0.481235 -0.10317 0.092459403
-0.48122901 0.103073 0.091691002
-0.44685501 0.206194 0.091461301
-0.42966899 0.240568 0.089535601
-0.39529499 0.292128 0.0942038
-0.29217401 0.39524901 0.093821101
-0.240613 0.42962301 0.089349002
-0.206239 0.44681001 0.0911614
-0.103118 0.48118401 0.091869697
0.481235 0.103073 0.0918018
0.446861 0.206194 0.091382399
0.42967501 0.240568 0.089482598
0.103124 0.48118401 0.091834597
0.20624501 0.44681001 0.0912861
0.240619 0.42962301 0.089382298
0.39530101 0.292128 0.0941585
0.29218 0.39524901 0.093868203
-0.27498701 -0.399923 0.122215
-0.281782 -0.39534599 0.122215
-0.29217401 -0.387638 0.122215
-0.304506 -0.37815899 0.122215
-0.30936101 -0.37421501 0.122215
-0.32463601 -0.360973 0.122215
-0.326547 -0.35926199 0.122215
-0.342796 -0.343786 0.122215
-0.343734 -0.34284699 0.122215
-0.359193 -0.326599 0.122215
-0.360921 -0.32468 0.122215
-0.37409899 -0.309412 0.122215
-0.37810799 -0.304517 0.122215
-0.38758799 -0.292225 0.122215
-0.39529499 -0.281771 0.122215
-0.399914 -0.275038 0.122215
-0.240613 -0.42164299 0.122215
-0.25604701 -0.41253299 0.122215
-0.223426 -0.43107399 0.122215
-0.22615001 -0.42972001 0.122215
-0.206239 -0.43938601 0.122215
-0.189053 -0.44730401 0.122215
-0.190038 -0.44690701 0.122215
-0.171866 -0.45411 0.122215
-0.137492 -0.46578199 0.122215
-0.143057 -0.46409401 0.122215
-0.154679 -0.460417 0.122215
-0.0515576 -0.48315501 0.122215
-0.065964602 -0.48128101 0.122215
-0.034370702 -0.48461801 0.122215
-0.0171839 -0.48545 0.122215
2.9800001e-06 -0.48595601 0.122215
-0.120305 -0.47035199 0.122215
-0.103118 -0.474448 0.122215
-0.085931301 -0.478104 0.122215
-0.068744503 -0.48091599 0.122215
-0.25780001 -0.411452 0.122215
-0.41248199 -0.25611201 0.122215
-0.42151299 -0.240665 0.122215
-0.42966899 -0.226028 0.122215
-0.43099901 -0.223478 0.122215
-0.439325 -0.20629101 0.122215
-0.44685501 -0.190134 0.122215
-0.44730201 -0.18910401 0.122215
-0.45400301 -0.17191701 0.122215
-0.46035299 -0.15473001 0.122215
-0.46404201 -0.143557 0.122215
-0.465781 -0.13754299 0.122215
-0.41141501 -0.257851 0.122215
-0.47025201 -0.120357 0.122215
-0.47440699 -0.10317 0.122215
-0.478008 -0.0859828 0.122215
-0.48085201 -0.068795897 0.122215
-0.48122901 -0.066196203 0.122215
-0.48311001 -0.051608998 0.122215
-0.48449701 -0.0344222 0.122215
-0.48549101 -0.0172353 0.122215
-0.485798 -4.8459999e-05 0.122215
0.017189899 -0.48545 0.122215
0.034376699 -0.484622 0.122215
0.051563598 -0.48309299 0.122215
0.065757699 -0.48128101 0.122215
0.068750396 -0.48092601 0.122215
0.085937299 -0.47814301 0.122215
0.103124 -0.47443199 0.122215
0.120311 -0.470357 0.122215
0.13749801 -0.465774 0.122215
0.14303 -0.46409401 0.122215
0.15468501 -0.46041 0.122215
0.171872 -0.45410299 0.122215
0.18905801 -0.447319 0.122215
0.190082 -0.44690701 0.122215
0.20624501 -0.439399 0.122215
0.223432 -0.43107599 0.122215
0.22615799 -0.42972001 0.122215
0.240619 -0.42161399 0.122215
0.256152 -0.41253299 0.122215
0.257806 -0.41152 0.122215
0.274993 -0.39991599 0.122215
0.28177601 -0.39534599 0.122215
0.29218 -0.38763401 0.122215
0.30452099 -0.37815899 0.122215
0.309367 -0.37420201 0.122215
0.32464001 -0.360973 0.122215
0.32655299 -0.35923901 0.122215
0.34287101 -0.343786 0.122215
0.34373999 -0.342926 0.122215
0.359175 -0.326599 0.122215
0.36092699 -0.32467601 0.122215
0.37410599 -0.309412 0.122215
0.37811401 -0.30452499 0.122215
0.38758299 -0.292225 0.122215
0.39530101 -0.28172401 0.122215
0.39989901 -0.275038 0.122215
0.41140699 -0.257851 0.122215
0.41248801 -0.25611299 0.122215
0.421534 -0.240665 0.122215
0.42967501 -0.226023 0.122215
0.43100601 -0.223478 0.122215
0.43932399 -0.20629101 0.122215
0.446861 -0.19011401 0.122215
0.447301 -0.18910401 0.122215
0.45401001 -0.17191701 0.122215
0.46036699 -0.15473001 0.122215
0.464048 -0.14348599 0.122215
0.46572 -0.13754299 0.122215
0.47026801 -0.120357 0.122215
0.47444099 -0.10317 0.122215
0.477972 -0.0859828 0.122215
0.480892 -0.068795897 0.122215
0.481235 -0.066511102 0.122215
0.48307401 -0.051608998 0.122215
0.48448101 -0.0344222 0.122215
0.48552999 -0.0172353 0.122215
0.48576 -4.8459999e-05 0.122215
-0.485394 0.017138399 0.122215
-0.48463801 0.034325201 0.122215
-0.48294199 0.0515121 0.122215
-0.48122901 0.066050597 0.122215
-0.48092601 0.068699002 0.122215
-0.47804001 0.085885897 0.122215
-0.474372 0.103073 0.122215
-0.47029501 0.12026 0.122215
-0.465644 0.137446 0.122215
-0.46404201 0.143013 0.122215
-0.46035099 0.154633 0.122215
-0.45396501 0.17182 0.122215
-0.44728199 0.189007 0.122215
-0.44685501 0.190075 0.122215
-0.43934101 0.206194 0.122215
-0.431052 0.223381 0.122215
-0.42966899 0.226164 0.122215
-0.42156601 0.240568 0.122215
-0.41248199 0.25613201 0.122215
-0.41147 0.25775501 0.122215
-0.39985701 0.274941 0.122215
-0.39529499 0.281795 0.122215
-0.38757199 0.292128 0.122215
-0.37810799 0.304566 0.122215
-0.37419999 0.309315 0.122215
-0.360921 0.32466701 0.122215
-0.359265 0.326502 0.122215
-0.343734 0.342825 0.122215
-0.34287199 0.34368899 0.122215
-0.326547 0.35918599 0.122215
-0.324687 0.36087599 0.122215
-0.30936101 0.37403899 0.122215
-0.30452299 0.37806299 0.122215
-0.29217401 0.38752201 0.122215
-0.28169301 0.39524901 0.122215
-0.27498701 0.39977899 0.122215
-0.25780001 0.41137201 0.122215
-0.25613299 0.41243601 0.122215
-0.240613 0.42146999 0.122215
-0.225935 0.42962301 0.122215
-0.223426 0.43092799 0.122215
-0.206239 0.43925199 0.122215
-0.19007599 0.44681001 0.122215
-0.189053 0.44725099 0.122215
-0.171866 0.45393801 0.122215
-0.154679 0.46029699 0.122215
-0.143456 0.46399701 0.122215
-0.137492 0.465637 0.122215
-0.120305 0.470184 0.122215
-0.103118 0.47436801 0.122215
-0.085931301 0.47785699 0.122215
-0.068744503 0.48090601 0.122215
-0.066917002 0.48118401 0.122215
-0.0515576 0.48291701 0.122215
-0.034370702 0.48449999 0.122215
-0.0171839 0.48542401 0.122215
2.9800001e-06 0.48561499 0.122215
0.481235 0.066023096 0.122215
0.480923 0.068699002 0.122215
0.48540199 0.017138399 0.122215
0.484633 0.034325201 0.122215
0.482945 0.0515121 0.122215
0.478008 0.085885897 0.122215
0.47436199 0.103073 0.122215
0.47030199 0.12026 0.122215
0.46565101 0.137446 0.122215
0.41248801 0.25611699 0.122215
0.41145799 0.25775501 0.122215
0.39986801 0.274941 0.122215
0.464048 0.142997 0.122215
0.460363 0.154633 0.122215
0.45397699 0.17182 0.122215
0.446861 0.190182 0.122215
0.43935099 0.206194 0.122215
0.44733301 0.189007 0.122215
0.43104801 0.223381 0.122215
0.42967501 0.226119 0.122215
0.42157 0.240568 0.122215
0.257806 0.41137499 0.122215
0.25613299 0.41243601 0.122215
0.274993 0.39976999 0.122215
0.068750396 0.48095101 0.122215
0.067119896 0.48118401 0.122215
0.085937299 0.477869 0.122215
0.103124 0.47431999 0.122215
0.120311 0.47020301 0.122215
0.13749801 0.46562499 0.122215
0.017189899 0.48550999 0.122215
0.034376699 0.48440799 0.122215
0.051563598 0.48292199 0.122215
0.20624501 0.43924099 0.122215
0.190069 0.44681001 0.122215
0.15468501 0.46029299 0.122215
0.143436 0.46399701 0.122215
0.171872 0.45393699 0.122215
0.18905801 0.447247 0.122215
0.240619 0.42146 0.122215
0.225961 0.42962301 0.122215
0.223432 0.43092999 0.122215
0.34373999 0.342825 0.122215
0.342879 0.34368899 0.122215
0.37811401 0.30452201 0.122215
0.37415799 0.309315 0.122215
0.39530101 0.28176099 0.122215
0.387568 0.292128 0.122215
0.36092699 0.324687 0.122215
0.35928199 0.326502 0.122215
0.309367 0.37400299 0.122215
0.304483 0.37806299 0.122215
0.32655299 0.35918999 0.122215
0.32469901 0.36087599 0.122215
0.29218 0.38752601 0.122215
0.28169501 0.39524901 0.122215
-0.343734 -0.343786 0.119601
-0.30936101 -0.37815899 0.109498
-0.326547 -0.360973 0.117076
-0.37810799 -0.309412 0.109168
-0.360921 -0.326599 0.117022
-0.25780001 -0.41253299 0.118624
-0.154679 -0.46409401 0.107339
-0.085931301 -0.48128101 0.109499
-0.068744503 -0.48128101 0.120929
-0.41248199 -0.257851 0.118652
-0.46404201 -0.15473001 0.107362
-0.48122901 -0.0859828 0.109378
-0.48122901 -0.068795897 0.120882
0.068750396 -0.48128101 0.120947
0.085937299 -0.48128101 0.109971
0.15468501 -0.46409401 0.107356
0.257806 -0.41253299 0.11875
0.309367 -0.37815899 0.109456
0.32655299 -0.360973 0.117052
0.34373999 -0.343786 0.119759
0.36092699 -0.326599 0.116971
0.37811401 -0.309412 0.109152
0.41248801 -0.257851 0.118614
0.464048 -0.15473001 0.107417
0.481235 -0.0859828 0.109128
0.481235 -0.068795897 0.121032
-0.48122901 0.068699002 0.121133
-0.48122901 0.085885897 0.109758
-0.46404201 0.154633 0.107247
-0.41248199 0.25775501 0.118747
-0.37810799 0.309315 0.109392
-0.360921 0.326502 0.117126
-0.343734 0.34368899 0.11977
-0.326547 0.36087599 0.117061
-0.30936101 0.37806299 0.109331
-0.25780001 0.41243601 0.118613
-0.154679 0.46399701 0.107282
-0.085931301 0.48118401 0.109048
-0.068744503 0.48118401 0.121253
0.481235 0.068699002 0.121105
0.481235 0.085885897 0.109582
0.41248801 0.25775501 0.118749
0.464048 0.154633 0.107263
0.257806 0.41243601 0.118631
0.068750396 0.48118401 0.121396
0.085937299 0.48118401 0.109128
0.15468501 0.46399701 0.107367
0.34373999 0.34368899 0.119763
0.37811401 0.309315 0.109376
0.36092699 0.326502 0.117169
0.309367 0.37806299 0.109316
0.32655299 0.36087599 0.117075
-0.29217401 -0.38183299 0.139401
-0.29699099 -0.37815899 0.139401
-0.27498701 -0.394541 0.139401
-0.30936101 -0.36797801 0.139401
-0.31760901 -0.360973 0.139401
-0.326547 -0.35289299 0.139401
-0.33612099 -0.343786 0.139401
-0.343734 -0.336178 0.139401
-0.35283101 -0.326599 0.139401
-0.360921 -0.317669 0.139401
-0.36790299 -0.309412 0.139401
-0.37810799 -0.29698199 0.139401
-0.38178101 -0.292225 0.139401
-0.394485 -0.275038 0.139401
-0.240613 -0.41628301 0.139401
-0.24718501 -0.41253299 0.139401
-0.206239 -0.43426099 0.139401
-0.215909 -0.42972001 0.139401
-0.223426 -0.42590901 0.139401
-0.171866 -0.449238 0.139401
-0.17772999 -0.44690701 0.139401
-0.154679 -0.45532101 0.139401
-0.137492 -0.46104801 0.139401
-0.189053 -0.44214299 0.139401
-0.120305 -0.46572399 0.139401
-0.12703 -0.46409401 0.139401
-0.103118 -0.46964201 0.139401
-0.085931301 -0.47319701 0.139401
-0.068744503 -0.47596499 0.139401
-0.0515576 -0.47833201 0.139401
-0.034370702 -0.47994599 0.139401
-0.0171839 -0.48080701 0.139401
2.9800001e-06 -0.48127601 0.139401
-0.25780001 -0.40580499 0.139401
-0.273808 -0.39534599 0.139401
-0.41248199 -0.24712799 0.139401
-0.416253 -0.240665 0.139401
-0.425834 -0.223478 0.139401
-0.42966899 -0.21598201 0.139401
-0.43421701 -0.20629101 0.139401
-0.44685501 -0.17796201 0.139401
-0.449209 -0.17191701 0.139401
-0.442101 -0.18910401 0.139401
-0.45525599 -0.15473001 0.139401
-0.46097201 -0.13754299 0.139401
-0.39529499 -0.27386299 0.139401
-0.40571299 -0.257851 0.139401
-0.46404201 -0.126938 0.139401
-0.465646 -0.120357 0.139401
-0.469625 -0.10317 0.139401
-0.473068 -0.0859828 0.139401
-0.47590199 -0.068795897 0.139401
-0.47831899 -0.051608998 0.139401
-0.47979501 -0.0344222 0.139401
-0.480829 -0.0172353 0.139401
-0.48113599 -4.8459999e-05 0.139401
0.017189899 -0.480809 0.139401
0.034376699 -0.47993699 0.139401
0.051563598 -0.47834599 0.139401
0.068750396 -0.475981 0.139401
0.085937299 -0.47316799 0.139401
0.103124 -0.469639 0.139401
0.120311 -0.465747 0.139401
0.127042 -0.46409401 0.139401
0.13749801 -0.461027 0.139401
0.15468501 -0.455318 0.139401
0.171872 -0.44923401 0.139401
0.17768601 -0.44690701 0.139401
0.18905801 -0.44212601 0.139401
0.20624501 -0.43426701 0.139401
0.215923 -0.42972001 0.139401
0.223432 -0.425919 0.139401
0.240619 -0.41626599 0.139401
0.24719401 -0.41253299 0.139401
0.257806 -0.405853 0.139401
0.27380201 -0.39534599 0.139401
0.274993 -0.39453301 0.139401
0.29218 -0.38184401 0.139401
0.297001 -0.37815899 0.139401
0.309367 -0.367966 0.139401
0.31764001 -0.360973 0.139401
0.32655299 -0.35289001 0.139401
0.33615601 -0.343786 0.139401
0.34373999 -0.336234 0.139401
0.352837 -0.326599 0.139401
0.36092699 -0.317673 0.139401
0.36789501 -0.309412 0.139401
0.37811401 -0.29699099 0.139401
0.38176599 -0.292225 0.139401
0.39449501 -0.275038 0.139401
0.39530101 -0.27388701 0.139401
0.40572399 -0.257851 0.139401
0.41248801 -0.24711899 0.139401
0.41625199 -0.240665 0.139401
0.425841 -0.223478 0.139401
0.42967501 -0.215995 0.139401
0.43420801 -0.20629101 0.139401
0.44210899 -0.18910401 0.139401
0.446861 -0.17801 0.139401
0.449182 -0.17191701 0.139401
0.45527199 -0.15473001 0.139401
0.46098199 -0.13754299 0.139401
0.464048 -0.126762 0.139401
0.46562499 -0.120357 0.139401
0.46962401 -0.10317 0.139401
0.47307599 -0.0859828 0.139401
0.47590101 -0.068795897 0.139401
0.47832599 -0.051608998 0.139401
0.47979799 -0.0344222 0.139401
0.48082599 -0.0172353 0.139401
0.481143 -4.8459999e-05 0.139401
-0.48074099 0.017138399 0.139401
-0.479947 0.034325201 0.139401
-0.47819 0.0515121 0.139401
-0.47594601 0.068699002 0.139401
-0.47307399 0.085885897 0.139401
-0.469594 0.103073 0.139401
-0.46565899 0.12026 0.139401
-0.46404201 0.126451 0.139401
-0.460931 0.137446 0.139401
-0.45531401 0.154633 0.139401
-0.44912401 0.17182 0.139401
-0.44685501 0.17767601 0.139401
-0.44207701 0.189007 0.139401
-0.43417701 0.206194 0.139401
-0.42966899 0.21596999 0.139401
-0.42587599 0.223381 0.139401
-0.41619799 0.240568 0.139401
-0.41248199 0.247188 0.139401
-0.40578699 0.25775501 0.139401
-0.39529499 0.27378601 0.139401
-0.39449799 0.274941 0.139401
-0.38174999 0.292128 0.139401
-0.37810799 0.296996 0.139401
-0.367971 0.309315 0.139401
-0.360921 0.317615 0.139401
-0.35288301 0.326502 0.139401
-0.343734 0.33611301 0.139401
-0.33616701 0.34368899 0.139401
-0.326547 0.352799 0.139401
-0.317626 0.36087599 0.139401
-0.30936101 0.36783499 0.139401
-0.296949 0.37806299 0.139401
-0.29217401 0.38169301 0.139401
-0.27498701 0.39447001 0.139401
-0.273873 0.39524901 0.139401
-0.25780001 0.40569201 0.139401
-0.247132 0.41243601 0.139401
-0.240613 0.41616899 0.139401
-0.223426 0.425798 0.139401
-0.216033 0.42962301 0.139401
-0.206239 0.43414599 0.139401
-0.189053 0.44207001 0.139401
-0.178001 0.44681001 0.139401
-0.171866 0.449065 0.139401
-0.154679 0.45522201 0.139401
-0.137492 0.46090299 0.139401
-0.126186 0.46399701 0.139401
-0.120305 0.46553001 0.139401
-0.103118 0.469612 0.139401
-0.085931301 0.472956 0.139401
-0.068744503 0.47591099 0.139401
-0.0515576 0.478158 0.139401
-0.034370702 0.47980499 0.139401
-0.0171839 0.48075899 0.139401
2.9800001e-06 0.48097399 0.139401
0.480739 0.017138399 0.139401
0.479949 0.034325201 0.139401
0.47818601 0.0515121 0.139401
0.475945 0.068699002 0.139401
0.47307801 0.085885897 0.139401
0.46960101 0.103073 0.139401
0.46564901 0.12026 0.139401
0.464048 0.12638301 0.139401
0.46094799 0.137446 0.139401
0.41248801 0.247192 0.139401
0.405738 0.25775501 0.139401
0.39530101 0.273819 0.139401
0.39452401 0.274941 0.139401
0.455282 0.154633 0.139401
0.449117 0.17182 0.139401
0.446861 0.17784201 0.139401
0.44212499 0.189007 0.139401
0.434181 0.206194 0.139401
0.42967501 0.21606199 0.139401
0.42590001 0.223381 0.139401
0.41622499 0.240568 0.139401
0.274993 0.39446601 0.139401
0.27386999 0.39524901 0.139401
0.257806 0.405691 0.139401
0.247199 0.41243601 0.139401
0.017189899 0.48082599 0.139401
0.034376699 0.479736 0.139401
0.051563598 0.47815999 0.139401
0.068750396 0.47591001 0.139401
0.085937299 0.47295499 0.139401
0.103124 0.46961799 0.139401
0.13749801 0.46089599 0.139401
0.12620901 0.46399701 0.139401
0.120311 0.465543 0.139401
0.18905801 0.44206601 0.139401
0.177982 0.44681001 0.139401
0.20624501 0.434127 0.139401
0.15468501 0.45522499 0.139401
0.171872 0.44906801 0.139401
0.223432 0.425834 0.139401
0.216116 0.42962301 0.139401
0.240619 0.41616699 0.139401
0.34373999 0.336124 0.139401
0.336178 0.34368899 0.139401
0.37811401 0.29696599 0.139401
0.36793801 0.309315 0.139401
0.38174 0.292128 0.139401
0.36092699 0.31761801 0.139401
0.352898 0.326502 0.139401
0.309367 0.36777899 0.139401
0.29693899 0.37806299 0.139401
0.32655299 0.352797 0.139401
0.317633 0.36087599 0.139401
0.29218 0.38171601 0.139401
-0.27498701 -0.39534599 0.13693
-0.39529499 -0.275038 0.136948
-0.223426 -0.42972001 0.12702499
-0.189053 -0.44690701 0.123602
-0.137492 -0.46409401 0.12861399
-0.0515576 -0.48128101 0.128958
-0.034370702 -0.48128101 0.13468599
-0.0171839 -0.48128101 0.137703
2.9800001e-06 -0.48128101 0.139385
-0.42966899 -0.223478 0.126903
-0.44685501 -0.18910401 0.123776
-0.46404201 -0.13754299 0.128768
-0.48122901 -0.051608998 0.12904
-0.48122901 -0.0344222 0.134305
-0.48122901 -0.0172353 0.13797
-0.48122901 -4.8459999e-05 0.13906901
0.017189899 -0.48128101 0.137715
0.034376699 -0.48128101 0.13457599
0.051563598 -0.48128101 0.128932
0.13749801 -0.46409401 0.128594
0.18905801 -0.44690701 0.123639
0.223432 -0.42972001 0.127057
0.274993 -0.39534599 0.136897
0.39530101 -0.275038 0.13694
0.42967501 -0.223478 0.12691601
0.446861 -0.18910401 0.123745
0.464048 -0.13754299 0.128539
0.481235 -0.051608998 0.12904
0.481235 -0.0344222 0.13428199
0.481235 -0.0172353 0.137931
0.481235 -4.8459999e-05 0.139075
-0.48122901 0.017138399 0.137659
-0.48122901 0.034325201 0.134793
-0.48122901 0.0515121 0.12852401
-0.46404201 0.137446 0.128281
-0.44685501 0.189007 0.123712
-0.42966899 0.223381 0.12719101
-0.39529499 0.274941 0.136999
-0.27498701 0.39524901 0.136998
-0.223426 0.42962301 0.12685999
-0.189053 0.44681001 0.123797
-0.137492 0.46399701 0.12836701
-0.0515576 0.48118401 0.128565
-0.034370702 0.48118401 0.134488
-0.0171839 0.48118401 0.13788299
2.9800001e-06 0.48118401 0.138653
0.481235 0.017138399 0.13763
0.481235 0.034325201 0.134767
0.481235 0.0515121 0.12850299
0.464048 0.137446 0.12831099
0.39530101 0.274941 0.137045
0.446861 0.189007 0.123932
0.42967501 0.223381 0.127193
0.274993 0.39524901 0.13698301
0.017189899 0.48118401 0.138127
0.034376699 0.48118401 0.134221
0.051563598 0.48118401 0.128555
0.13749801 0.46399701 0.12833799
0.18905801 0.44681001 0.123778
0.223432 0.42962301 0.126875
-0.27498701 -0.38805199 0.156588
-0.28855601 -0.37815899 0.156588
-0.30936101 -0.36127901 0.156588
-0.30971801 -0.360973 0.156588
-0.326547 -0.34579 0.156588
-0.328664 -0.343786 0.156588
-0.29217401 -0.37539399 0.156588
-0.343734 -0.328704 0.156588
-0.34574401 -0.326599 0.156588
-0.360921 -0.30977601 0.156588
-0.36122599 -0.309412 0.156588
-0.37810799 -0.288656 0.156588
-0.38799801 -0.275038 0.156588
-0.37530699 -0.292225 0.156588
-0.223426 -0.419835 0.156588
-0.236908 -0.41253299 0.156588
-0.206239 -0.42877701 0.156588
-0.154679 -0.44994101 0.156588
-0.16363101 -0.44690701 0.156588
-0.137492 -0.45541099 0.156588
-0.189053 -0.43631801 0.156588
-0.204243 -0.42972001 0.156588
-0.171866 -0.44366199 0.156588
-0.103118 -0.46452901 0.156588
-0.105154 -0.46409401 0.156588
-0.120305 -0.46045199 0.156588
-0.085931301 -0.467935 0.156588
-0.068744503 -0.47067499 0.156588
-0.0515576 -0.472904 0.156588
-0.034370702 -0.474491 0.156588
-0.0171839 -0.475391 0.156588
2.9800001e-06 -0.47585601 0.156588
-0.25780001 -0.39960101 0.156588
-0.264469 -0.39534599 0.156588
-0.240613 -0.41042 0.156588
-0.41248199 -0.237091 0.156588
-0.41975999 -0.223478 0.156588
-0.428729 -0.20629101 0.156588
-0.42966899 -0.20436899 0.156588
-0.436263 -0.18910401 0.156588
-0.44361299 -0.17191701 0.156588
-0.44685501 -0.163698 0.156588
-0.449866 -0.15473001 0.156588
-0.45535299 -0.13754299 0.156588
-0.39529499 -0.264487 0.156588
-0.399506 -0.257851 0.156588
-0.41034701 -0.240665 0.156588
-0.46035501 -0.120357 0.156588
-0.46404201 -0.105197 0.156588
-0.46451199 -0.10317 0.156588
-0.46784601 -0.0859828 0.156588
-0.47057399 -0.068795897 0.156588
-0.47289199 -0.051608998 0.156588
-0.47435901 -0.0344222 0.156588
-0.47540399 -0.0172353 0.156588
-0.47572601 -4.8459999e-05 0.156588
0.017189899 -0.47539401 0.156588
0.034376699 -0.474491 0.156588
0.051563598 -0.47289601 0.156588
0.068750396 -0.470689 0.156588
0.085937299 -0.46791101 0.156588
0.103124 -0.46453401 0.156588
0.105285 -0.46409401 0.156588
0.120311 -0.46044901 0.156588
0.13749801 -0.455403 0.156588
0.15468501 -0.44996399 0.156588
0.16336501 -0.44690701 0.156588
0.171872 -0.44359401 0.156588
0.18905801 -0.43633801 0.156588
0.204218 -0.42972001 0.156588
0.20624501 -0.42876801 0.156588
0.223432 -0.41983399 0.156588
0.236908 -0.41253299 0.156588
0.240619 -0.41040501 0.156588
0.257806 -0.39957899 0.156588
0.264476 -0.39534599 0.156588
0.274993 -0.38804099 0.156588
0.288589 -0.37815899 0.156588
0.29218 -0.375402 0.156588
0.309367 -0.36127099 0.156588
0.30971801 -0.360973 0.156588
0.32655299 -0.345788 0.156588
0.328655 -0.343786 0.156588
0.34373999 -0.32869601 0.156588
0.345736 -0.326599 0.156588
0.36092699 -0.30979699 0.156588
0.36125401 -0.309412 0.156588
0.375319 -0.292225 0.156588
0.37811401 -0.28866401 0.156588
0.387981 -0.275038 0.156588
0.39530101 -0.264447 0.156588
0.39951599 -0.257851 0.156588
0.41035801 -0.240665 0.156588
0.41248801 -0.237095 0.156588
0.41975999 -0.223478 0.156588
0.42873499 -0.20629101 0.156588
0.42967501 -0.204366 0.156588
0.43626699 -0.18910401 0.156588
0.44362399 -0.17191701 0.156588
0.446861 -0.163645 0.156588
0.449855 -0.15473001 0.156588
0.45536801 -0.13754299 0.156588
0.46036699 -0.120357 0.156588
0.464048 -0.105158 0.156588
0.464508 -0.10317 0.156588
0.46784499 -0.0859828 0.156588
0.470577 -0.068795897 0.156588
0.47289601 -0.051608998 0.156588
0.474356 -0.0344222 0.156588
0.47541001 -0.0172353 0.156588
0.475721 -4.8459999e-05 0.156588
-0.47531801 0.017138399 0.156588
-0.474475 0.034325201 0.156588
-0.472767 0.0515121 0.156588
-0.47062901 0.068699002 0.156588
-0.46783301 0.085885897 0.156588
-0.46449399 0.103073 0.156588
-0.46404201 0.10534 0.156588
-0.46037501 0.12026 0.156588
-0.455347 0.137446 0.156588
-0.44988099 0.154633 0.156588
-0.44685501 0.16300599 0.156588
-0.44351599 0.17182 0.156588
-0.43626001 0.189007 0.156588
-0.42966899 0.204044 0.156588
-0.42867899 0.206194 0.156588
-0.41975701 0.223381 0.156588
-0.41248199 0.236863 0.156588
-0.410344 0.240568 0.156588
-0.39949599 0.25775501 0.156588
-0.39529499 0.26442799 0.156588
-0.38798299 0.274941 0.156588
-0.37810799 0.28853801 0.156588
-0.37531 0.292128 0.156588
-0.36126301 0.309315 0.156588
-0.360921 0.309717 0.156588
-0.34571201 0.326502 0.156588
-0.343734 0.32858899 0.156588
-0.32862401 0.34368899 0.156588
-0.326547 0.34565601 0.156588
-0.30973601 0.36087599 0.156588
-0.30936101 0.36119699 0.156588
-0.29217401 0.37530899 0.156588
-0.28864601 0.37806299 0.156588
-0.27498701 0.38792801 0.156588
-0.26446101 0.39524901 0.156588
-0.25780001 0.39943799 0.156588
-0.240613 0.41032299 0.156588
-0.237059 0.41243601 0.156588
-0.223426 0.41968799 0.156588
-0.206239 0.42868501 0.156588
-0.204266 0.42962301 0.156588
-0.189053 0.43618301 0.156588
-0.171866 0.44352701 0.156588
-0.16320901 0.44681001 0.156588
-0.154679 0.44976199 0.156588
-0.137492 0.455284 0.156588
-0.120305 0.46026099 0.156588
-0.105262 0.46399701 0.156588
-0.103118 0.464472 0.156588
-0.085931301 0.46774501 0.156588
-0.068744503 0.47057599 0.156588
-0.0515576 0.47275901 0.156588
-0.034370702 0.47434601 0.156588
-0.0171839 0.475324 0.156588
2.9800001e-06 0.47557601 0.156588
0.47534099 0.017138399 0.156588
0.474457 0.034325201 0.156588
0.47276399 0.0515121 0.156588
0.47064799 0.068699002 0.156588
0.46781701 0.085885897 0.156588
0.46448901 0.103073 0.156588
0.464048 0.105302 0.156588
0.46037799 0.12026 0.156588
0.45535401 0.137446 0.156588
0.41248801 0.23690499 0.156588
0.410368 0.240568 0.156588
0.39947501 0.25775501 0.156588
0.39530101 0.26440799 0.156588
0.388006 0.274941 0.156588
0.446861 0.162944 0.156588
0.44351301 0.17182 0.156588
0.44986701 0.154633 0.156588
0.43625101 0.189007 0.156588
0.42967501 0.20403901 0.156588
0.42868301 0.206194 0.156588
0.41976199 0.223381 0.156588
0.240619 0.41034001 0.156588
0.23705199 0.41243601 0.156588
0.274993 0.38792101 0.156588
0.264483 0.39524901 0.156588
0.257806 0.39943701 0.156588
0.017189899 0.47539401 0.156588
0.034376699 0.47428 0.156588
0.051563598 0.47277299 0.156588
0.068750396 0.47056299 0.156588
0.085937299 0.46774301 0.156588
0.103124 0.464477 0.156588
0.120311 0.46024901 0.156588
0.105286 0.46399701 0.156588
0.13749801 0.455302 0.156588
0.171872 0.44350001 0.156588
0.163084 0.44681001 0.156588
0.20624501 0.42868501 0.156588
0.204225 0.42962301 0.156588
0.18905801 0.43618199 0.156588
0.15468501 0.44976601 0.156588
0.223432 0.41971099 0.156588
0.34373999 0.32859299 0.156588
0.32862899 0.34368899 0.156588
0.37811401 0.28853899 0.156588
0.375319 0.292128 0.156588
0.36126 0.309315 0.156588
0.36092699 0.30970499 0.156588
0.34572101 0.326502 0.156588
0.29218 0.37531301 0.156588
0.288654 0.37806299 0.156588
0.309367 0.361193 0.156588
0.32655299 0.34565699 0.156588
0.30973899 0.36087599 0.156588
-0.29217401 -0.37815899 0.149672
-0.37810799 -0.292225 0.149602
-0.240613 -0.41253299 0.15084299
-0.206239 -0.42972001 0.15384001
-0.171866 -0.44690701 0.14718699
-0.120305 -0.46409401 0.145108
-0.41248199 -0.240665 0.150856
-0.42966899 -0.20629101 0.153825
-0.44685501 -0.17191701 0.14724299
-0.46404201 -0.120357 0.145053
0.120311 -0.46409401 0.14522
0.171872 -0.44690701 0.147113
0.20624501 -0.42972001 0.153818
0.240619 -0.41253299 0.1508
0.29218 -0.37815899 0.149727
0.37811401 -0.292225 0.14959
0.41248801 -0.240665 0.150847
0.42967501 -0.20629101 0.153823
0.446861 -0.17191701 0.147203
0.464048 -0.120357 0.144969
-0.46404201 0.12026 0.14517701
-0.44685501 0.17182 0.146951
-0.42966899 0.206194 0.153716
-0.41248199 0.240568 0.150745
-0.37810799 0.292128 0.149626
-0.29217401 0.37806299 0.14965101
-0.240613 0.41243601 0.150847
-0.206239 0.42962301 0.153863
-0.171866 0.44681001 0.146852
-0.120305 0.46399701 0.14486399
0.464048 0.12026 0.145109
0.41248801 0.240568 0.15082601
0.446861 0.17182 0.14688499
0.42967501 0.206194 0.153705
0.240619 0.41243601 0.15091699
0.120311 0.46399701 0.144895
0.171872 0.44681001 0.14684001
0.20624501 0.42962301 0.15386
0.37811401 0.292128 0.14962
0.29218 0.37806299 0.14968599
-0.27498701 -0.380705 0.173775
-0.27853099 -0.37815899 0.173775
-0.30936101 -0.353306 0.173775
-0.319978 -0.343786 0.173775
-0.29217401 -0.367549 0.173775
-0.300414 -0.360973 0.173775
-0.343734 -0.320077 0.173775
-0.35328999 -0.309412 0.173775
-0.37810799 -0.27857199 0.173775
-0.380669 -0.275038 0.173775
-0.360921 -0.30048499 0.173775
-0.36749199 -0.292225 0.173775
-0.326547 -0.33755001 0.173775
-0.33747399 -0.326599 0.173775
-0.223426 -0.413221 0.173775
-0.2247 -0.41253299 0.173775
-0.206239 -0.421938 0.173775
-0.137492 -0.44918701 0.173775
-0.145044 -0.44690701 0.173775
-0.189053 -0.43006399 0.173775
-0.189852 -0.42972001 0.173775
-0.171866 -0.436977 0.173775
-0.154679 -0.443629 0.173775
-0.120305 -0.45405 0.173775
-0.103118 -0.45837101 0.173775
-0.068744503 -0.46478999 0.173775
-0.074049301 -0.46409401 0.173775
-0.085931301 -0.462071 0.173775
-0.0515576 -0.46690899 0.173775
-0.034370702 -0.468456 0.173775
-0.0171839 -0.46930501 0.173775
2.9800001e-06 -0.469695 0.173775
-0.240613 -0.40316799 0.173775
-0.25365499 -0.39534599 0.173775
-0.25780001 -0.392674 0.173775
-0.41248199 -0.224756 0.173775
-0.413167 -0.223478 0.173775
-0.42193401 -0.20629101 0.173775
-0.42966899 -0.189988 0.173775
-0.43003899 -0.18910401 0.173775
-0.436932 -0.17191701 0.173775
-0.44685501 -0.14482 0.173775
-0.449141 -0.13754299 0.173775
-0.44355601 -0.15473001 0.173775
-0.39263999 -0.257851 0.173775
-0.39529499 -0.25377899 0.173775
-0.403166 -0.240665 0.173775
-0.453949 -0.120357 0.173775
-0.45831901 -0.10317 0.173775
-0.46207899 -0.0859828 0.173775
-0.46404201 -0.073497802 0.173775
-0.464683 -0.068795897 0.173775
-0.46686 -0.051608998 0.173775
-0.468371 -0.0344222 0.173775
-0.46928501 -0.0172353 0.173775
-0.46958101 -4.8459999e-05 0.173775
0.017189899 -0.46929899 0.173775
0.034376699 -0.46846199 0.173775
0.051563598 -0.46690699 0.173775
0.068750396 -0.46479401 0.173775
0.074073099 -0.46409401 0.173775
0.085937299 -0.46206 0.173775
0.103124 -0.45839301 0.173775
0.120311 -0.45402899 0.173775
0.13749801 -0.449204 0.173775
0.145266 -0.44690701 0.173775
0.15468501 -0.44360599 0.173775
0.171872 -0.436946 0.173775
0.18905801 -0.43006599 0.173775
0.18984801 -0.42972001 0.173775
0.20624501 -0.421938 0.173775
0.223432 -0.41321301 0.173775
0.224685 -0.41253299 0.173775
0.240619 -0.40317601 0.173775
0.25366199 -0.39534599 0.173775
0.257806 -0.39267001 0.173775
0.274993 -0.380712 0.173775
0.278543 -0.37815899 0.173775
0.29218 -0.36756799 0.173775
0.30045301 -0.360973 0.173775
0.309367 -0.35330999 0.173775
0.31998101 -0.343786 0.173775
0.32655299 -0.337549 0.173775
0.33748901 -0.326599 0.173775
0.34373999 -0.32005399 0.173775
0.353295 -0.309412 0.173775
0.36092699 -0.300529 0.173775
0.36749101 -0.292225 0.173775
0.37811401 -0.27858001 0.173775
0.38066 -0.275038 0.173775
0.39262101 -0.257851 0.173775
0.39530101 -0.253782 0.173775
0.40316999 -0.240665 0.173775
0.41248801 -0.224768 0.173775
0.41317201 -0.223478 0.173775
0.421947 -0.20629101 0.173775
0.42967501 -0.19003101 0.173775
0.43005699 -0.18910401 0.173775
0.43692699 -0.17191701 0.173775
0.44355699 -0.15473001 0.173775
0.446861 -0.144784 0.173775
0.44914401 -0.13754299 0.173775
0.453958 -0.120357 0.173775
0.45831299 -0.10317 0.173775
0.46202001 -0.0859828 0.173775
0.464048 -0.073228203 0.173775
0.46469301 -0.068795897 0.173775
0.46688399 -0.051608998 0.173775
0.46834901 -0.0344222 0.173775
0.469291 -0.0172353 0.173775
0.46957901 -4.8459999e-05 0.173775
-0.469282 0.017138399 0.173775
-0.46840301 0.034325201 0.173775
-0.466804 0.0515121 0.173775
-0.464771 0.068699002 0.173775
-0.46404201 0.073751502 0.173775
-0.461943 0.085885897 0.173775
-0.45832399 0.103073 0.173775
-0.453962 0.12026 0.173775
-0.44913799 0.137446 0.173775
-0.44685501 0.14513201 0.173775
-0.443508 0.154633 0.173775
-0.436903 0.17182 0.173775
-0.42994899 0.189007 0.173775
-0.42966899 0.189647 0.173775
-0.42181301 0.206194 0.173775
-0.41312301 0.223381 0.173775
-0.41248199 0.224608 0.173775
-0.403139 0.240568 0.173775
-0.39529499 0.25353301 0.173775
-0.39257801 0.25775501 0.173775
-0.380658 0.274941 0.173775
-0.37810799 0.278521 0.173775
-0.367535 0.292128 0.173775
-0.360921 0.30045 0.173775
-0.35333899 0.309315 0.173775
-0.343734 0.31996399 0.173775
-0.33749101 0.326502 0.173775
-0.326547 0.33743399 0.173775
-0.32000399 0.34368899 0.173775
-0.30936101 0.35327399 0.173775
-0.30045199 0.36087599 0.173775
-0.29217401 0.36745 0.173775
-0.27858901 0.37806299 0.173775
-0.27498701 0.380604 0.173775
-0.25780001 0.39256099 0.173775
-0.25370499 0.39524901 0.173775
-0.240613 0.40309799 0.173775
-0.22472399 0.41243601 0.173775
-0.223426 0.41311201 0.173775
-0.206239 0.42183399 0.173775
-0.18978199 0.42962301 0.173775
-0.189053 0.429923 0.173775
-0.171866 0.43684199 0.173775
-0.154679 0.443463 0.173775
-0.144591 0.44681001 0.173775
-0.137492 0.44908199 0.173775
-0.120305 0.453897 0.173775
-0.103118 0.45826101 0.173775
-0.085931301 0.461927 0.173775
-0.0729312 0.46399701 0.173775
-0.068744503 0.46467 0.173775
-0.0515576 0.46679601 0.173775
-0.034370702 0.46830899 0.173775
-0.0171839 0.46924201 0.173775
2.9800001e-06 0.46946701 0.173775
0.46929699 0.017138399 0.173775
0.46838701 0.034325201 0.173775
0.466822 0.0515121 0.173775
0.464829 0.068699002 0.173775
0.464048 0.073957503 0.173775
0.461936 0.085885897 0.173775
0.45830101 0.103073 0.173775
0.45396101 0.12026 0.173775
0.44914001 0.137446 0.173775
0.41248801 0.22459701 0.173775
0.40314299 0.240568 0.173775
0.39530101 0.25352901 0.173775
0.39257899 0.25775501 0.173775
0.38065699 0.274941 0.173775
0.446861 0.14511199 0.173775
0.44350901 0.154633 0.173775
0.436905 0.17182 0.173775
0.429948 0.189007 0.173775
0.42967501 0.18962801 0.173775
0.421819 0.206194 0.173775
0.41312501 0.223381 0.173775
0.240619 0.403101 0.173775
0.22473601 0.41243601 0.173775
0.257806 0.392602 0.173775
0.25375599 0.39524901 0.173775
0.274993 0.38058901 0.173775
0.017189899 0.469266 0.173775
0.034376699 0.468272 0.173775
0.051563598 0.4668 0.173775
0.068750396 0.464674 0.173775
0.085937299 0.46192601 0.173775
0.072989501 0.46399701 0.173775
0.103124 0.45826799 0.173775
0.120311 0.45388401 0.173775
0.13749801 0.44909599 0.173775
0.15468501 0.44345999 0.173775
0.14469901 0.44681001 0.173775
0.171872 0.436827 0.173775
0.20624501 0.42182401 0.173775
0.189777 0.42962301 0.173775
0.18905801 0.42991799 0.173775
0.223432 0.413109 0.173775
0.34373999 0.319956 0.173775
0.33748299 0.326502 0.173775
0.32655299 0.337421 0.173775
0.31999701 0.34368899 0.173775
0.37811401 0.278512 0.173775
0.36753201 0.292128 0.173775
0.36092699 0.30043301 0.173775
0.35333699 0.309315 0.173775
0.309367 0.35326299 0.173775
0.30044901 0.36087599 0.173775
0.29218 0.367448 0.173775
0.27858099 0.37806299 0.173775
-0.30936101 -0.360973 0.15731899
-0.326547 -0.343786 0.16112299
-0.343734 -0.326599 0.16112199
-0.360921 -0.309412 0.15732899
-0.154679 -0.44690701 0.165341
-0.103118 -0.46409401 0.157942
-0.085931301 -0.46409401 0.168295
-0.25780001 -0.39534599 0.167567
-0.44685501 -0.15473001 0.165272
-0.39529499 -0.257851 0.167593
-0.46404201 -0.10317 0.15805399
-0.46404201 -0.0859828 0.168412
0.085937299 -0.46409401 0.16826899
0.103124 -0.46409401 0.15797199
0.15468501 -0.44690701 0.165342
0.257806 -0.39534599 0.167578
0.309367 -0.360973 0.157304
0.32655299 -0.343786 0.161128
0.34373999 -0.326599 0.161112
0.36092699 -0.309412 0.157386
0.39530101 -0.257851 0.167519
0.446861 -0.15473001 0.16525599
0.464048 -0.10317 0.15801901
0.464048 -0.0859828 0.168254
-0.46404201 0.085885897 0.168143
-0.46404201 0.103073 0.157998
-0.44685501 0.154633 0.165224
-0.39529499 0.25775501 0.167503
-0.360921 0.309315 0.15742999
-0.343734 0.326502 0.16114999
-0.326547 0.34368899 0.16112
-0.30936101 0.36087599 0.15737601
-0.25780001 0.39524901 0.16748101
-0.154679 0.44681001 0.165071
-0.103118 0.46399701 0.158051
-0.085931301 0.46399701 0.168191
0.464048 0.085885897 0.168107
0.464048 0.103073 0.157951
0.39530101 0.25775501 0.167485
0.446861 0.154633 0.165214
0.257806 0.39524901 0.167557
0.085937299 0.46399701 0.168181
0.103124 0.46399701 0.15806399
0.15468501 0.44681001 0.165068
0.34373999 0.326502 0.16114999
0.32655299 0.34368899 0.161118
0.36092699 0.309315 0.15741099
0.309367 0.36087599 0.157369
-0.30936101 -0.34447199 0.190962
-0.310123 -0.343786 0.190962
-0.27498701 -0.37249899 0.190962
-0.29002601 -0.360973 0.190962
-0.29217401 -0.35923699 0.190962
-0.343734 -0.310164 0.190962
-0.34440401 -0.309412 0.190962
-0.35918501 -0.292225 0.190962
-0.360921 -0.29008299 0.190962
-0.37244001 -0.275038 0.190962
-0.326547 -0.328145 0.190962
-0.32809299 -0.326599 0.190962
-0.206239 -0.41460201 0.190962
-0.210519 -0.41253299 0.190962
-0.171866 -0.43005401 0.190962
-0.17276099 -0.42972001 0.190962
-0.189053 -0.422656 0.190962
-0.154679 -0.436261 0.190962
-0.137492 -0.442155 0.190962
-0.120305 -0.44732401 0.190962
-0.121777 -0.44690701 0.190962
-0.103118 -0.451446 0.190962
-0.085931301 -0.45500001 0.190962
-0.068744503 -0.458018 0.190962
-0.0515576 -0.46038499 0.190962
-0.034370702 -0.46207601 0.190962
-0.0171839 -0.46302301 0.190962
2.9800001e-06 -0.463467 0.190962
-0.240613 -0.39564899 0.190962
-0.241115 -0.39534599 0.190962
-0.25780001 -0.38445401 0.190962
-0.267241 -0.37815899 0.190962
-0.223426 -0.405435 0.190962
-0.41248199 -0.210568 0.190962
-0.41452101 -0.20629101 0.190962
-0.422598 -0.18910401 0.190962
-0.42966899 -0.172794 0.190962
-0.429997 -0.17191701 0.190962
-0.43617201 -0.15473001 0.190962
-0.44211501 -0.13754299 0.190962
-0.37810799 -0.267369 0.190962
-0.384426 -0.257851 0.190962
-0.39529499 -0.241145 0.190962
-0.395583 -0.240665 0.190962
-0.40538901 -0.223478 0.190962
-0.44685501 -0.12202 0.190962
-0.44730899 -0.120357 0.190962
-0.451363 -0.10317 0.190962
-0.45493901 -0.0859828 0.190962
-0.45795 -0.068795897 0.190962
-0.460325 -0.051608998 0.190962
-0.46198899 -0.0344222 0.190962
-0.46301901 -0.0172353 0.190962
-0.463321 -4.8459999e-05 0.190962
0.017189899 -0.46303001 0.190962
0.034376699 -0.462069 0.190962
0.051563598 -0.46038899 0.190962
0.068750396 -0.458013 0.190962
0.085937299 -0.455006 0.190962
0.103124 -0.451437 0.190962
0.120311 -0.44733301 0.190962
0.121823 -0.44690701 0.190962
0.13749801 -0.442148 0.190962
0.15468501 -0.43626401 0.190962
0.171872 -0.43006 0.190962
0.17276999 -0.42972001 0.190962
0.18905801 -0.42266899 0.190962
0.20624501 -0.41459 0.190962
0.210446 -0.41253299 0.190962
0.223432 -0.405426 0.190962
0.240619 -0.39562199 0.190962
0.241082 -0.39534599 0.190962
0.257806 -0.384464 0.190962
0.26722401 -0.37815899 0.190962
0.274993 -0.372482 0.190962
0.290012 -0.360973 0.190962
0.29218 -0.35923299 0.190962
0.309367 -0.344468 0.190962
0.31012601 -0.343786 0.190962
0.32655299 -0.32813901 0.190962
0.32809201 -0.326599 0.190962
0.34373999 -0.310164 0.190962
0.34440899 -0.309412 0.190962
0.359193 -0.292225 0.190962
0.36092699 -0.29008999 0.190962
0.37245899 -0.275038 0.190962
0.37811401 -0.26740801 0.190962
0.38445601 -0.257851 0.190962
0.39530101 -0.241129 0.190962
0.39557901 -0.240665 0.190962
0.40539601 -0.223478 0.190962
0.41248801 -0.210563 0.190962
0.41452399 -0.20629101 0.190962
0.42259601 -0.18910401 0.190962
0.42967501 -0.172768 0.190962
0.429995 -0.17191701 0.190962
0.43617401 -0.15473001 0.190962
0.44212401 -0.13754299 0.190962
0.446861 -0.121927 0.190962
0.44727901 -0.120357 0.190962
0.45135599 -0.10317 0.190962
0.454961 -0.0859828 0.190962
0.457932 -0.068795897 0.190962
0.46033201 -0.051608998 0.190962
0.46199101 -0.0344222 0.190962
0.46302399 -0.0172353 0.190962
0.46332499 -4.8459999e-05 0.190962
-0.46297601 0.017138399 0.190962
-0.46198601 0.034325201 0.190962
-0.460289 0.0515121 0.190962
-0.45799199 0.068699002 0.190962
-0.45489201 0.085885897 0.190962
-0.45140299 0.103073 0.190962
-0.44720399 0.12026 0.190962
-0.44685501 0.121586 0.190962
-0.442105 0.137446 0.190962
-0.43617401 0.154633 0.190962
-0.429986 0.17182 0.190962
-0.42966899 0.172619 0.190962
-0.42253101 0.189007 0.190962
-0.41451901 0.206194 0.190962
-0.41248199 0.210247 0.190962
-0.405359 0.223381 0.190962
-0.395547 0.240568 0.190962
-0.39529499 0.24099 0.190962
-0.38438699 0.25775501 0.190962
-0.37810799 0.26710799 0.190962
-0.37239799 0.274941 0.190962
-0.360921 0.28993899 0.190962
-0.359139 0.292128 0.190962
-0.34441701 0.309315 0.190962
-0.343734 0.31007901 0.190962
-0.328062 0.326502 0.190962
-0.326547 0.328013 0.190962
-0.310141 0.34368899 0.190962
-0.30936101 0.34439 0.190962
-0.29217401 0.359137 0.190962
-0.29002601 0.36087599 0.190962
-0.27498701 0.372385 0.190962
-0.26732501 0.37806299 0.190962
-0.25780001 0.38442901 0.190962
-0.24102999 0.39524901 0.190962
-0.240613 0.395495 0.190962
-0.223426 0.405325 0.190962
-0.210327 0.41243601 0.190962
-0.206239 0.41443899 0.190962
-0.189053 0.42252699 0.190962
-0.172637 0.42962301 0.190962
-0.171866 0.429932 0.190962
-0.154679 0.436149 0.190962
-0.137492 0.44206399 0.190962
-0.121742 0.44681001 0.190962
-0.120305 0.44717401 0.190962
-0.103118 0.451345 0.190962
-0.085931301 0.45482299 0.190962
-0.068744503 0.45790201 0.190962
-0.0515576 0.460253 0.190962
-0.034370702 0.46189901 0.190962
-0.0171839 0.46291399 0.190962
2.9800001e-06 0.46318701 0.190962
0.46297801 0.017138399 0.190962
0.461979 0.034325201 0.190962
0.46031699 0.0515121 0.190962
0.45797101 0.068699002 0.190962
0.454889 0.085885897 0.190962
0.45143399 0.103073 0.190962
0.446861 0.121549 0.190962
0.44210601 0.137446 0.190962
0.447198 0.12026 0.190962
0.41248801 0.21022999 0.190962
0.40536299 0.223381 0.190962
0.39554501 0.240568 0.190962
0.37811401 0.26710799 0.190962
0.37240201 0.274941 0.190962
0.39530101 0.240977 0.190962
0.38439301 0.25775501 0.190962
0.43618 0.154633 0.190962
0.429984 0.17182 0.190962
0.42967501 0.17259701 0.190962
0.42253599 0.189007 0.190962
0.41451901 0.206194 0.190962
0.274993 0.37237799 0.190962
0.267315 0.37806299 0.190962
0.223432 0.40531901 0.190962
0.21031199 0.41243601 0.190962
0.240619 0.39549699 0.190962
0.257806 0.38443199 0.190962
0.241042 0.39524901 0.190962
0.017189899 0.462975 0.190962
0.034376699 0.46184501 0.190962
0.051563598 0.46027499 0.190962
0.068750396 0.457894 0.190962
0.13749801 0.442058 0.190962
0.121757 0.44681001 0.190962
0.085937299 0.454824 0.190962
0.103124 0.45133901 0.190962
0.120311 0.44717601 0.190962
0.15468501 0.436147 0.190962
0.171872 0.42993301 0.190962
0.18905801 0.422526 0.190962
0.172649 0.42962301 0.190962
0.20624501 0.41443601 0.190962
0.34373999 0.31007901 0.190962
0.32806301 0.326502 0.190962
0.32655299 0.328013 0.190962
0.31014401 0.34368899 0.190962
0.36092699 0.289942 0.190962
0.35914701 0.292128 0.190962
0.34442201 0.309315 0.190962
0.29218 0.359124 0.190962
0.29001099 0.36087599 0.190962
0.309367 0.34438401 0.190962
-0.27498701 -0.37815899 0.17941301
-0.29217401 -0.360973 0.18749399
-0.37810799 -0.275038 0.179472
-0.360921 -0.292225 0.187482
-0.223426 -0.41253299 0.17542499
-0.137492 -0.44690701 0.179609
-0.189053 -0.42972001 0.174656
-0.068744503 -0.46409401 0.17565
-0.0515576 -0.46409401 0.181427
-0.034370702 -0.46409401 0.18569501
-0.0171839 -0.46409401 0.188132
2.9800001e-06 -0.46409401 0.18927801
-0.41248199 -0.223478 0.17544501
-0.42966899 -0.18910401 0.174723
-0.44685501 -0.13754299 0.179603
-0.46404201 -0.068795897 0.17551699
-0.46404201 -0.051608998 0.181409
-0.46404201 -0.0344222 0.185597
-0.46404201 -0.0172353 0.18823899
-0.46404201 -4.8459999e-05 0.189033
0.017189899 -0.46409401 0.18815701
0.034376699 -0.46409401 0.185684
0.051563598 -0.46409401 0.181412
0.068750396 -0.46409401 0.175657
0.13749801 -0.44690701 0.179621
0.18905801 -0.42972001 0.174652
0.223432 -0.41253299 0.17540599
0.274993 -0.37815899 0.17942201
0.29218 -0.360973 0.187499
0.36092699 -0.292225 0.187479
0.37811401 -0.275038 0.1795
0.41248801 -0.223478 0.17544401
0.42967501 -0.18910401 0.17476
0.446861 -0.13754299 0.17963
0.464048 -0.068795897 0.175521
0.464048 -0.051608998 0.181446
0.464048 -0.0344222 0.18555699
0.464048 -0.0172353 0.18823899
0.464048 -4.8459999e-05 0.189032
-0.46404201 0.017138399 0.18816499
-0.46404201 0.034325201 0.185615
-0.46404201 0.0515121 0.181298
-0.46404201 0.068699002 0.17575499
-0.44685501 0.137446 0.179537
-0.42966899 0.189007 0.174474
-0.41248199 0.223381 0.175318
-0.37810799 0.274941 0.179406
-0.360921 0.292128 0.18745001
-0.29217401 0.36087599 0.187447
-0.27498701 0.37806299 0.179498
-0.223426 0.41243601 0.175412
-0.189053 0.42962301 0.17454
-0.137492 0.44681001 0.179666
-0.068744503 0.46399701 0.175586
-0.0515576 0.46399701 0.181426
-0.034370702 0.46399701 0.185504
-0.0171839 0.46399701 0.18811899
2.9800001e-06 0.46399701 0.18881699
0.464048 0.017138399 0.188154
0.464048 0.034325201 0.185573
0.464048 0.0515121 0.181381
0.464048 0.068699002 0.17587399
0.446861 0.137446 0.179525
0.41248801 0.223381 0.175309
0.37811401 0.274941 0.179408
0.42967501 0.189007 0.17445201
0.274993 0.37806299 0.17947499
0.223432 0.41243601 0.175411
0.017189899 0.46399701 0.188253
0.034376699 0.46399701 0.18538199
0.051563598 0.46399701 0.181438
0.068750396 0.46399701 0.17559899
0.13749801 0.44681001 0.179662
0.18905801 0.42962301 0.174527
0.36092699 0.292128 0.18743899
0.29218 0.36087599 0.18742301
-0.27498701 -0.36321101 0.208149
-0.27795801 -0.360973 0.208149
-0.29217401 -0.34948501 0.208149
-0.29896399 -0.343786 0.208149
-0.343734 -0.299016 0.208149
-0.34943399 -0.292225 0.208149
-0.360921 -0.27804601 0.208149
-0.363159 -0.275038 0.208149
-0.30936101 -0.334434 0.208149
-0.31764799 -0.326599 0.208149
-0.326547 -0.31769699 0.208149
-0.334373 -0.309412 0.208149
-0.189053 -0.41462001 0.208149
-0.19388001 -0.41253299 0.208149
-0.171866 -0.42196399 0.208149
-0.137492 -0.434284 0.208149
-0.15185501 -0.42972001 0.208149
-0.154679 -0.42875099 0.208149
-0.085931301 -0.44765401 0.208149
-0.089549802 -0.44690701 0.208149
-0.068744503 -0.45050201 0.208149
-0.120305 -0.439432 0.208149
-0.103118 -0.443988 0.208149
-0.0515576 -0.45273799 0.208149
-0.034370702 -0.45433801 0.208149
-0.0171839 -0.45531201 0.208149
2.9800001e-06 -0.45574301 0.208149
-0.240613 -0.38688999 0.208149
-0.25429001 -0.37815899 0.208149
-0.223426 -0.39708301 0.208149
-0.226631 -0.39534599 0.208149
-0.206239 -0.406322 0.208149
-0.25780001 -0.375761 0.208149
-0.41248199 -0.193737 0.208149
-0.414505 -0.18910401 0.208149
-0.42185199 -0.17191701 0.208149
-0.428702 -0.15473001 0.208149
-0.42966899 -0.151997 0.208149
-0.43421599 -0.13754299 0.208149
-0.37810799 -0.254338 0.208149
-0.386823 -0.240665 0.208149
-0.37568101 -0.257851 0.208149
-0.39529499 -0.226671 0.208149
-0.39701599 -0.223478 0.208149
-0.40621999 -0.20629101 0.208149
-0.439347 -0.120357 0.208149
-0.44391999 -0.10317 0.208149
-0.44685501 -0.089549303 0.208149
-0.44758701 -0.0859828 0.208149
-0.450432 -0.068795897 0.208149
-0.45266801 -0.051608998 0.208149
-0.454265 -0.0344222 0.208149
-0.45528901 -0.0172353 0.208149
-0.455634 -4.8459999e-05 0.208149
0.017189899 -0.45527199 0.208149
0.034376699 -0.45437399 0.208149
0.051563598 -0.45271099 0.208149
0.068750396 -0.45052099 0.208149
0.085937299 -0.44762701 0.208149
0.089413002 -0.44690701 0.208149
0.103124 -0.44397801 0.208149
0.120311 -0.43939099 0.208149
0.13749801 -0.43426499 0.208149
0.151871 -0.42972001 0.208149
0.15468501 -0.42875999 0.208149
0.171872 -0.421965 0.208149
0.18905801 -0.41462699 0.208149
0.19390699 -0.41253299 0.208149
0.20624501 -0.40628701 0.208149
0.223432 -0.397064 0.208149
0.22656199 -0.39534599 0.208149
0.240619 -0.38684601 0.208149
0.25423101 -0.37815899 0.208149
