# .PCD v0.7 - Point Cloud Data file format
VERSION 0.7
FIELDS x y z
SIZE 4 4 4
TYPE F F F
COUNT 1 1 1
WIDTH 1413
HEIGHT 1
VIEWPOINT 0 0 0 1 0 0 0
POINTS 1413
DATA ascii
0.154542 0.27314499 0.045705002
0.17173 0.26987901 0.045705002
0.188917 0.266395 0.045705002
0.186508 0.26690599 0.045705002
0.20610499 0.26240501 0.045705002
0.25766701 0.245342 0.045705002
0.247243 0.249718 0.045705002
0.27485499 0.235589 0.045705002
0.22329199 0.25769299 0.045705002
0.24048001 0.25211099 0.045705002
0.33618301 0.095030501 0.045705002
0.33525601 0.112218 0.045705002
0.33457899 0.12940601 0.045705002
0.33394399 0.146593 0.045705002
0.33204299 0.163781 0.045705002
0.326417 0.18094 0.045705002
0.32640299 0.180968 0.045705002
0.30922899 0.20621 0.045705002
0.30084699 0.215343 0.045705002
0.31524399 0.198156 0.045705002
0.29204199 0.223178 0.045705002
0.279659 0.232531 0.045705002
0.068604499 0.389667 0.045705002
0.066136703 0.40440601 0.045705002
0.064054497 0.42159301 0.045705002
0.072479397 0.370031 0.045705002
0.069078997 0.387218 0.045705002
0.063542202 0.43878099 0.045705002
0.064541198 0.45596799 0.045705002
0.066091202 0.47315601 0.045705002
0.068590097 0.490343 0.045705002
0.068604499 0.490421 0.045705002
0.017042 0.558011 0.045705002
0.019405499 0.559093 0.045705002
0.072494902 0.50753099 0.045705002
0.076650701 0.52471799 0.045705002
0.078303598 0.541906 0.045705002
0.0727368 0.559093 0.045705002
0.034229498 0.564785 0.045705002
0.051417001 0.56792098 0.045705002
0.068604499 0.56319201 0.045705002
-0.27514601 -0.43778199 0.037623201
-0.32670799 -0.33465701 0.0364962
-0.24077 -0.43778199 0.039423801
-0.13764501 -0.28309399 0.042858101
-0.13764501 -0.26590699 0.033716999
-0.154833 -0.197157 0.040894799
-0.103271 -0.33465701 0.043255199
-0.120458 -0.300282 0.037987798
-0.103271 -0.300282 0.038454998
-0.154833 -0.179969 0.0317882
0.068604499 -0.369032 0.033077002
0.051417001 -0.33465701 0.029686
0.24048001 -0.43778199 0.033591401
0.25766701 -0.43778199 0.0296319
0.25766701 -0.42059401 0.041733
0.27485499 -0.43778199 0.036792099
0.27485499 -0.42059401 0.0412581
0.034229498 -0.28309399 0.038736999
0.29204199 -0.43778199 0.033560298
0.30922899 -0.40340701 0.038134899
0.326417 -0.35184401 0.040178198
-0.086083002 0.33565599 0.037663002
-0.068895496 0.40440601 0.044750601
-0.068895496 0.42159301 0.0428962
-0.068895496 0.43878099 0.041542601
-0.068895496 0.45596799 0.041838001
-0.068895496 0.47315601 0.0434203
0.120167 0.28409299 0.038340501
0.102979 0.30128101 0.035066798
0.085791998 0.33565599 0.038353302
0.085791998 0.35284299 0.0306048
0.188917 0.26690599 0.038031202
0.326417 0.180968 0.045634001
0.068604499 0.40440601 0.042858701
0.068604499 0.42159301 0.040134899
0.068604499 0.43878099 0.0392658
0.068604499 0.45596799 0.040625598
0.068604499 0.47315601 0.042762998
0.068604499 0.490343 0.045688499
0.034229498 0.559093 0.037703302
0.085791998 0.52471799 0.0303647
0.085791998 0.541906 0.032782499
-0.296763 -0.42325801 0.0333535
-0.31928301 -0.36330301 0.03644
-0.33342701 -0.291688 0.0353925
-0.33414301 -0.274501 0.0353925
-0.33463001 -0.257613 0.034246702
-0.073912397 -0.273552 0.037585001
-0.33681601 -0.171376 0.0353925
-0.336732 -0.15418801 0.0353925
-0.33761901 -0.0149695 0.0371112
-0.33804801 0.050342999 0.0371112
-0.121137 -0.12963 0.0371112
0.33347699 -0.291688 0.0353925
0.333702 -0.274501 0.0353925
0.333689 -0.25731301 0.0353925
-0.228747 0.26882601 0.0371112
-0.130771 0.289698 0.0371112
-0.073770903 0.482972 0.036730401
-0.076334499 0.49893701 0.0353925
-0.083146699 0.53352302 0.0370095
-0.0206814 0.53726101 0.032965802
-0.0285646 0.55092198 0.037168201
-0.0087392302 0.54722202 0.043064501
0.0084482403 0.54733098 0.044445898
0.025130801 0.54911703 0.039979499
0.0351036 0.53642303 0.0301327
-0.29233301 -0.41064599 0.054298699
-0.29548901 -0.40340701 0.054298699
-0.30952001 -0.386987 0.054298699
-0.30975801 -0.38621899 0.054298699
-0.312336 -0.377626 0.054298699
-0.31444001 -0.369032 0.054298699
-0.30092701 -0.39860901 0.054298699
-0.30661201 -0.394813 0.054298699
-0.094676703 -0.26068401 0.054298699
-0.0973887 -0.25731301 0.054298699
-0.088799901 -0.26590699 0.054298699
-0.097698197 -0.24871901 0.054298699
-0.068895496 -0.25816101 0.054298699
-0.069197796 -0.25731301 0.054298699
-0.077489302 -0.256244 0.054298699
-0.084338903 -0.24871901 0.054298699
-0.0986863 -0.240126 0.054298699
-0.086083002 -0.24533901 0.054298699
-0.087655202 -0.240126 0.054298699
-0.099189498 -0.23153199 0.054298699
-0.086083002 -0.239121 0.054298699
-0.077489302 -0.237801 0.054298699
-0.068895496 -0.23569299 0.054298699
-0.103271 -0.20851 0.054298699
-0.103668 -0.205751 0.054298699
-0.104853 -0.197157 0.054298699
-0.099072799 -0.222938 0.054298699
-0.101959 -0.21434399 0.054298699
-0.064775199 -0.24871901 0.054298699
-0.065529503 -0.240126 0.054298699
-0.335345 -0.0080944598 0.054298699
-0.33554599 0.00049927999 0.054298699
-0.335637 0.0090930499 0.054298699
-0.33574599 0.017686799 0.054298699
-0.33585301 0.026280601 0.054298699
-0.335991 0.034874301 0.054298699
-0.33608899 0.043467999 0.054298699
-0.105919 -0.188563 0.054298699
-0.106673 -0.179969 0.054298699
-0.107117 -0.171376 0.054298699
-0.107806 -0.162782 0.054298699
-0.109655 -0.15418801 0.054298699
-0.111864 -0.147238 0.054298699
-0.112462 -0.145594 0.054298699
-0.120458 -0.129224 0.054298699
-0.121101 -0.128407 0.054298699
-0.11567 -0.13700099 0.054298699
-0.21498901 0.26945701 0.054298699
-0.223583 0.267766 0.054298699
-0.206396 0.27091801 0.054298699
-0.19780201 0.27230299 0.054298699
-0.189208 0.273458 0.054298699
-0.18061399 0.27459499 0.054298699
-0.174243 0.27549899 0.054298699
-0.17202 0.275837 0.054298699
-0.163427 0.27727199 0.054298699
-0.154833 0.27896199 0.054298699
-0.146239 0.28083399 0.054298699
-0.13764501 0.283124 0.054298699
-0.072732799 0.541906 0.054298699
-0.073369503 0.55049902 0.054298699
-0.071518503 0.559093 0.054298699
-0.068895496 0.56337899 0.054298699
-0.064337999 0.56768698 0.054298699
-0.060301799 0.57010901 0.054298699
-0.051708002 0.57211602 0.054298699
-0.0431142 0.57164198 0.054298699
-0.034520499 0.56987 0.054298699
-0.29233301 -0.41200101 0.052131601
-0.094676703 -0.25731301 0.051794801
-0.086083002 -0.26590699 0.054018699
-0.086083002 -0.25731301 0.053500399
-0.094676703 -0.24871901 0.050568301
-0.086083002 -0.24871901 0.052581102
-0.077489302 -0.26590699 0.053142302
-0.077489302 -0.25731301 0.054080199
-0.068895496 -0.26590699 0.052428599
-0.068895496 -0.25731301 0.052894201
-0.068895496 -0.24871901 0.050010301
-0.094676703 -0.240126 0.051787701
-0.094676703 -0.23153199 0.051573198
-0.086083002 -0.23153199 0.052796401
-0.068895496 -0.240126 0.051708099
-0.077489302 -0.23153199 0.052705601
-0.103271 -0.205751 0.0525418
-0.103271 -0.197157 0.049289402
-0.094676703 -0.222938 0.051555399
-0.086083002 -0.222938 0.0507553
-0.094676703 -0.21434399 0.046098199
-0.086083002 -0.21434399 0.0490974
-0.086083002 -0.205751 0.046587501
-0.103271 -0.188563 0.0469645
-0.103271 -0.179969 0.045867901
-0.111864 -0.145594 0.051192001
-0.18061399 0.27549899 0.048483402
-0.13764501 0.28409299 0.050420899
-0.077489302 0.541906 0.048632901
-0.077489302 0.55049902 0.049412102
-0.077489302 0.559093 0.0475224
-0.068895496 0.56768698 0.049886599
-0.034520499 0.56768698 0.049612898
-0.29233301 -0.40548 0.062892497
-0.29365101 -0.40340701 0.062892497
-0.30952001 -0.38063601 0.062892497
-0.31041601 -0.377626 0.062892497
-0.312738 -0.369032 0.062892497
-0.30092701 -0.39719701 0.062892497
-0.30394199 -0.394813 0.062892497
-0.30785799 -0.38621899 0.062892497
-0.098528199 -0.26590699 0.062892497
-0.0988646 -0.25731301 0.062892497
-0.099093497 -0.24871901 0.062892497
-0.100164 -0.240126 0.062892497
-0.100614 -0.23153199 0.062892497
-0.068895496 -0.23963401 0.062892497
-0.069608897 -0.23153199 0.062892497
-0.103271 -0.218549 0.062892497
-0.103846 -0.21434399 0.062892497
-0.104733 -0.205751 0.062892497
-0.105886 -0.197157 0.062892497
-0.101826 -0.222938 0.062892497
-0.070018403 -0.222938 0.062892497
-0.071075402 -0.21434399 0.062892497
-0.072590597 -0.205751 0.062892497
-0.074598797 -0.197157 0.062892497
-0.060301799 -0.242365 0.062892497
-0.068713501 -0.240126 0.062892497
-0.0600507 -0.240126 0.062892497
-0.060301799 -0.23597001 0.062892497
-0.060726799 -0.23153199 0.062892497
-0.061587401 -0.222938 0.062892497
-0.0637713 -0.21434399 0.062892497
-0.065977201 -0.205751 0.062892497
-0.065372802 -0.197157 0.062892497
-0.33331701 -0.0080944598 0.062892497
-0.33360499 0.00049927999 0.062892497
-0.333763 0.0090930499 0.062892497
-0.33401901 0.017686799 0.062892497
-0.33420101 0.026280601 0.062892497
-0.334335 0.034874301 0.062892497
-0.33433199 0.043467999 0.062892497
-0.106802 -0.188563 0.062892497
-0.107705 -0.179969 0.062892497
-0.108422 -0.171376 0.062892497
-0.109502 -0.162782 0.062892497
-0.075741298 -0.188563 0.062892497
-0.077489302 -0.18009301 0.062892497
-0.077546798 -0.179969 0.062892497
-0.086083002 -0.173912 0.062892497
-0.090418696 -0.171376 0.062892497
-0.086083002 -0.16601001 0.062892497
-0.068895496 -0.176982 0.062892497
-0.070603698 -0.171376 0.062892497
-0.077489302 -0.165977 0.062892497
-0.111296 -0.15418801 0.062892497
-0.111864 -0.151853 0.062892497
-0.113691 -0.145594 0.062892497
-0.120458 -0.129244 0.062892497
-0.120966 -0.128407 0.062892497
-0.116324 -0.13700099 0.062892497
-0.0652152 -0.188563 0.062892497
-0.067429602 -0.179969 0.062892497
-0.222289 0.26690599 0.062892497
-0.223583 0.26667601 0.062892497
-0.21498901 0.26829401 0.062892497
-0.206396 0.26981899 0.062892497
-0.19780201 0.271222 0.062892497
-0.189208 0.272403 0.062892497
-0.18061399 0.27349001 0.062892497
-0.17202 0.27461001 0.062892497
-0.165859 0.27549899 0.062892497
-0.163427 0.27586901 0.062892497
-0.154833 0.27734801 0.062892497
-0.146239 0.279037 0.062892497
-0.13764501 0.280956 0.062892497
-0.064303197 0.541906 0.062892497
-0.064510897 0.55049902 0.062892497
-0.0619983 0.559093 0.062892497
-0.060301799 0.56172401 0.062892497
-0.053534701 0.56768698 0.062892497
-0.051708002 0.56864899 0.062892497
-0.0431142 0.57114398 0.062892497
-0.034520499 0.57084399 0.062892497
-0.129052 0.28316101 0.062892497
-0.125632 0.28409299 0.062892497
-0.120458 0.28560299 0.062892497
-0.30952001 -0.38621899 0.0553797
-0.094676703 -0.26590699 0.0561915
-0.068895496 -0.25731301 0.055383801
-0.077489302 -0.24871901 0.0563499
-0.068895496 -0.24871901 0.059208799
-0.086083002 -0.240126 0.054430701
-0.077489302 -0.240126 0.054882601
-0.068895496 -0.240126 0.062600099
-0.068895496 -0.23153199 0.056389902
-0.103271 -0.21434399 0.058197498
-0.068895496 -0.222938 0.057115301
-0.068895496 -0.21434399 0.0576551
-0.068895496 -0.205751 0.0585468
-0.068895496 -0.197157 0.058430001
-0.060301799 -0.240126 0.061016399
-0.335302 -0.0080944598 0.054532502
-0.335302 0.00049927999 0.055654101
-0.335302 0.0090930499 0.0560687
-0.335302 0.017686799 0.056827899
-0.335302 0.026280601 0.057539798
-0.335302 0.034874301 0.058246199
-0.335302 0.043467999 0.058582101
-0.068895496 -0.188563 0.058932699
-0.077489302 -0.179969 0.060451198
-0.068895496 -0.179969 0.0615425
-0.086083002 -0.171376 0.059052698
-0.077489302 -0.171376 0.0586445
-0.223583 0.26690599 0.060924198
-0.17202 0.27549899 0.056360099
-0.068895496 0.541906 0.0584784
-0.068895496 0.55049902 0.058860201
-0.068895496 0.559093 0.0569942
-0.060301799 0.56768698 0.057765801
-0.0714527 -0.236635 0.058322199
-0.065344699 -0.242901 0.059601098
-0.065683998 -0.237207 0.060019299
-0.27514601 -0.42266801 0.062892497
-0.27740201 -0.42059401 0.062892497
-0.31714001 -0.35184401 0.062892497
-0.32148099 -0.33465701 0.062892497
-0.32500699 -0.317469 0.062892497
-0.32670799 -0.30577999 0.062892497
-0.327324 -0.300282 0.062892497
-0.328623 -0.28309399 0.062892497
-0.329256 -0.26590699 0.062892497
-0.32987201 -0.24871901 0.062892497
-0.33075199 -0.23153199 0.062892497
-0.331541 -0.21434399 0.062892497
-0.33220401 -0.197157 0.062892497
-0.25795799 -0.432421 0.062892497
-0.24077 -0.43171501 0.062892497
-0.14081299 -0.300282 0.062892497
-0.145137 -0.28309399 0.062892497
-0.148247 -0.26590699 0.062892497
-0.15085 -0.24871901 0.062892497
-0.153201 -0.23153199 0.062892497
-0.154833 -0.218178 0.062892497
-0.15528999 -0.21434399 0.062892497
-0.157354 -0.197157 0.062892497
-0.12681299 -0.33465701 0.062892497
-0.134106 -0.317469 0.062892497
-0.13764501 -0.30932999 0.062892497
-0.086366199 -0.33465701 0.062892497
-0.095887698 -0.317469 0.062892497
-0.101492 -0.300282 0.062892497
-0.100463 -0.28309399 0.062892497
-0.0154336 -0.300282 0.062892497
-0.00014549 -0.29068899 0.062892497
-0.33298799 -0.179969 0.062892497
-0.33334801 -0.162782 0.062892497
-0.33337799 -0.145594 0.062892497
-0.33355099 -0.128407 0.062892497
-0.33359301 -0.111219 0.062892497
-0.33349401 -0.094031997 0.062892497
-0.333361 -0.076844402 0.062892497
-0.33302701 -0.059657 0.062892497
-0.33269501 -0.042469501 0.062892497
-0.33276799 -0.025281999 0.062892497
-0.33409101 0.060655601 0.062892497
-0.333947 0.077843003 0.062892497
-0.15920299 -0.179969 0.062892497
-0.16033199 -0.162782 0.062892497
-0.159734 -0.145594 0.062892497
-0.155174 -0.128407 0.062892497
-0.154833 -0.127755 0.062892497
-0.13764501 -0.116433 0.062892497
0.102979 -0.40783599 0.062892497
0.096088298 -0.40340701 0.062892497
0.120167 -0.41420299 0.062892497
0.137354 -0.416567 0.062892497
0.068604499 -0.35612699 0.062892497
0.066923797 -0.35184401 0.062892497
0.059902299 -0.33465701 0.062892497
0.085791998 -0.392196 0.062892497
0.082259797 -0.38621899 0.062892497
0.073891804 -0.369032 0.062892497
0.17173 -0.42075101 0.062892497
0.171003 -0.42059401 0.062892497
0.154542 -0.418075 0.062892497
0.188917 -0.425751 0.062892497
0.20610499 -0.430971 0.062892497
0.24088401 -0.42059401 0.062892497
0.24048001 -0.420858 0.062892497
0.27485499 -0.426644 0.062892497
0.274726 -0.42059401 0.062892497
0.25766701 -0.40794501 0.062892497
0.051417001 -0.32142001 0.062892497
0.048158299 -0.317469 0.062892497
0.036802299 -0.300282 0.062892497
0.017042 -0.286937 0.062892497
0.034229498 -0.29651201 0.062892497
0.29204199 -0.42741901 0.062892497
0.29730001 -0.42059401 0.062892497
0.30498099 -0.40340701 0.062892497
0.30922899 -0.39020699 0.062892497
0.310716 -0.38621899 0.062892497
0.31704599 -0.369032 0.062892497
0.32274699 -0.35184401 0.062892497
0.326417 -0.33725101 0.062892497
0.32692701 -0.33465701 0.062892497
0.32912999 -0.317469 0.062892497
0.329914 -0.300282 0.062892497
0.33043301 -0.28309399 0.062892497
0.330547 -0.26590699 0.062892497
0.329961 -0.24871901 0.062892497
0.32902899 -0.23153199 0.062892497
0.32819101 -0.21434399 0.062892497
0.32769501 -0.197157 0.062892497
0.32790399 -0.179969 0.062892497
0.32878301 -0.162782 0.062892497
0.32998499 -0.145594 0.062892497
0.33114401 -0.128407 0.062892497
0.331615 -0.111219 0.062892497
0.33123901 -0.094031997 0.062892497
0.33036301 -0.076844402 0.062892497
0.329514 -0.059657 0.062892497
0.32932299 -0.042469501 0.062892497
0.329918 -0.025281999 0.062892497
0.331128 -0.0080944598 0.062892497
0.332643 0.0090930499 0.062892497
0.33373901 0.026280601 0.062892497
0.33427399 0.043467999 0.062892497
0.33442 0.060655601 0.062892497
0.33418199 0.077843003 0.062892497
-0.33399099 0.095030501 0.062892497
-0.333756 0.112218 0.062892497
-0.33314499 0.12940601 0.062892497
-0.33176699 0.146593 0.062892497
-0.32877001 0.163781 0.062892497
-0.32670799 0.172892 0.062892497
-0.32459599 0.180968 0.062892497
-0.3184 0.198156 0.062892497
-0.30952001 0.215295 0.062892497
-0.30948901 0.215343 0.062892497
-0.29556701 0.232531 0.062892497
-0.29233301 0.235704 0.062892497
-0.27514601 0.248889 0.062892497
-0.27372101 0.249718 0.062892497
-0.25795799 0.257182 0.062892497
-0.24077 0.263033 0.062892497
-0.103271 0.29271901 0.062892497
-0.090157703 0.30128101 0.062892497
-0.086083002 0.30494601 0.062892497
-0.075421996 0.318468 0.062892497
-0.068895496 0.33088401 0.062892497
-0.067221701 0.33565599 0.062892497
-0.062017199 0.35284299 0.062892497
-0.057373799 0.370031 0.062892497
-0.053737599 0.387218 0.062892497
-0.051708002 0.40153199 0.062892497
-0.0513952 0.40440601 0.062892497
-0.049309701 0.42159301 0.062892497
-0.047232099 0.43878099 0.062892497
-0.046273701 0.45596799 0.062892497
-0.047328498 0.47315601 0.062892497
-0.050431199 0.490343 0.062892497
-0.051708002 0.495592 0.062892497
-0.055216599 0.50753099 0.062892497
-0.060581598 0.52471799 0.062892497
-0.017333001 0.56890398 0.062892497
-0.00014549 0.56748098 0.062892497
0.120167 0.27897701 0.062892497
0.106963 0.28409299 0.062892497
0.137354 0.274441 0.062892497
0.068604499 0.329276 0.062892497
0.065816298 0.33565599 0.062892497
0.058550399 0.35284299 0.062892497
0.102979 0.28623199 0.062892497
0.085975297 0.30128101 0.062892497
0.085791998 0.301505 0.062892497
0.074206397 0.318468 0.062892497
0.154542 0.27125901 0.062892497
0.17173 0.26822099 0.062892497
0.188917 0.26492801 0.062892497
0.17895301 0.26690599 0.062892497
0.20610499 0.260865 0.062892497
0.24048001 0.24960101 0.062892497
0.240178 0.249718 0.062892497
0.27485499 0.23222899 0.062892497
0.274409 0.232531 0.062892497
0.25766701 0.24197 0.062892497
0.22329199 0.25574601 0.062892497
0.33341101 0.095030501 0.062892497
0.33226901 0.112218 0.062892497
0.33130199 0.12940601 0.062892497
0.33039999 0.146593 0.062892497
0.32825801 0.163781 0.062892497
0.326417 0.171455 0.062892497
0.322418 0.180968 0.062892497
0.30922899 0.200468 0.062892497
0.29553899 0.215343 0.062892497
0.311012 0.198156 0.062892497
0.29204199 0.218545 0.062892497
0.053076699 0.370031 0.062892497
0.051417001 0.377781 0.062892497
0.049768299 0.387218 0.062892497
0.047372799 0.40440601 0.062892497
0.0452355 0.42159301 0.062892497
0.044282399 0.43878099 0.062892497
0.045018598 0.45596799 0.062892497
0.046861202 0.47315601 0.062892497
0.049895201 0.490343 0.062892497
0.051417001 0.49711201 0.062892497
0.054212499 0.50753099 0.062892497
0.059959799 0.52471799 0.062892497
0.0626055 0.541906 0.062892497
0.0548537 0.559093 0.062892497
0.017042 0.56699401 0.062892497
0.034229498 0.566369 0.062892497
0.051417001 0.56140602 0.062892497
-0.223583 -0.424357 0.062892497
-0.21671 -0.42059401 0.062892497
-0.206396 -0.41575801 0.062892497
-0.189208 -0.40862 0.062892497
-0.17591199 -0.40340701 0.062892497
-0.17202 -0.40198299 0.062892497
-0.32670799 -0.317469 0.053372901
-0.25795799 -0.43778199 0.046310499
-0.13764501 -0.300282 0.054332901
-0.154833 -0.21434399 0.055102199
-0.120458 -0.33465701 0.0519014
-0.120458 -0.317469 0.046564601
-0.103271 -0.317469 0.049538702
-0.068895496 -0.33465701 0.048891202
-0.086083002 -0.28309399 0.0470898
-0.017333001 -0.300282 0.0587059
-0.00014549 -0.28309399 0.0482416
-0.154833 -0.128407 0.053148899
0.17173 -0.42059401 0.062222902
0.27485499 -0.42059401 0.059896901
0.017042 -0.28309399 0.057197701
-0.32670799 0.180968 0.050864
-0.30952001 0.215343 0.062716298
-0.27514601 0.249718 0.052928898
-0.103271 0.30128101 0.047875099
-0.086083002 0.318468 0.0510052
-0.068895496 0.33565599 0.0614115
-0.068895496 0.35284299 0.056391101
-0.068895496 0.370031 0.0515172
-0.068895496 0.387218 0.047316998
-0.051708002 0.40440601 0.062653802
-0.051708002 0.42159301 0.0610888
-0.068895496 0.490343 0.045906801
-0.051708002 0.43878099 0.059580199
-0.051708002 0.45596799 0.059002299
-0.051708002 0.47315601 0.059795599
-0.051708002 0.490343 0.0620117
-0.068895496 0.50753099 0.0497596
-0.068895496 0.52471799 0.0548582
-0.017333001 0.559093 0.046927799
-0.00014549 0.559093 0.0492303
0.068604499 0.33565599 0.060375001
0.068604499 0.35284299 0.054339699
0.085791998 0.318468 0.049067002
0.24048001 0.249718 0.062112
0.27485499 0.232531 0.061349701
0.068604499 0.370031 0.049931802
0.051417001 0.387218 0.061717302
0.068604499 0.387218 0.046225
0.051417001 0.40440601 0.0597842
0.051417001 0.42159301 0.0581575
0.051417001 0.43878099 0.057463899
0.051417001 0.45596799 0.058070999
0.051417001 0.47315601 0.059459701
0.051417001 0.490343 0.061744899
0.068604499 0.50753099 0.050214902
0.068604499 0.52471799 0.0552352
0.017042 0.559093 0.046520401
0.068604499 0.541906 0.057337299
0.068604499 0.559093 0.0506608
-0.28939301 -0.414368 0.053937599
-0.316246 -0.36215699 0.054298699
-0.092438899 -0.27163601 0.056230702
-0.0783123 -0.273552 0.0496815
-0.068279803 -0.25698301 0.052214801
-0.33495399 -0.0138236 0.054337699
-0.33572701 0.049197201 0.055012599
-0.127776 -0.123924 0.054298699
-0.226009 0.26763999 0.051658198
-0.133524 0.28308499 0.058679499
-0.073884599 0.53617603 0.051279701
-0.0277774 0.56574601 0.0525764
-0.13764501 -0.38294399 0.062892497
-0.125277 -0.369032 0.062892497
-0.068895496 -0.33891201 0.062892497
-0.0545802 -0.33465701 0.062892497
-0.034520499 -0.32225901 0.062892497
-0.17202 -0.40340701 0.0426559
-0.225962 -0.42869699 0.049216699
-0.186992 -0.410276 0.048061401
-0.116735 -0.34646299 0.0462403
-0.083839998 -0.336925 0.045797002
-0.055051301 -0.32753101 0.046236001
-0.0248974 -0.30524001 0.047871798
0.25766701 -0.43927699 0.031410102
0.222294 -0.431844 0.0439745
0.284154 -0.43896899 0.0318469
-0.100632 -0.26590699 0.071486197
-0.100215 -0.25731301 0.071486197
-0.100486 -0.24871901 0.071486197
-0.100969 -0.240126 0.071486197
-0.101806 -0.23153199 0.071486197
-0.103271 -0.21475101 0.071486197
-0.103323 -0.21434399 0.071486197
-0.104274 -0.205751 0.071486197
-0.10525 -0.197157 0.071486197
-0.102526 -0.222938 0.071486197
-0.068895496 -0.19835301 0.071486197
-0.069258504 -0.197157 0.071486197
-0.10641 -0.188563 0.071486197
-0.107813 -0.179969 0.071486197
-0.109121 -0.171376 0.071486197
-0.10992 -0.162782 0.071486197
-0.072401799 -0.188563 0.071486197
-0.075015299 -0.179969 0.071486197
-0.086083002 -0.163424 0.071486197
-0.090799503 -0.162782 0.071486197
-0.076521397 -0.171376 0.071486197
-0.077489302 -0.16661 0.071486197
-0.111108 -0.15418801 0.071486197
-0.111864 -0.15130299 0.071486197
-0.113411 -0.145594 0.071486197
-0.115638 -0.13700099 0.071486197
-0.120326 -0.128407 0.071486197
-0.092829697 -0.15418801 0.071486197
-0.086083002 -0.152264 0.071486197
-0.077489302 -0.15620799 0.071486197
-0.084334902 -0.15418801 0.071486197
-0.068895496 -0.156121 0.071486197
-0.057312202 -0.179969 0.071486197
-0.0600232 -0.171376 0.071486197
-0.060301799 -0.16997001 0.071486197
-0.062564798 -0.162782 0.071486197
-0.217841 0.26690599 0.071486197
-0.223583 0.26585001 0.071486197
-0.21498901 0.26745 0.071486197
-0.206396 0.269034 0.071486197
-0.19780201 0.27043101 0.071486197
-0.189208 0.27157 0.071486197
-0.18061399 0.27262801 0.071486197
-0.17202 0.27372199 0.071486197
-0.163427 0.27491301 0.071486197
-0.159229 0.27549899 0.071486197
-0.154833 0.27614599 0.071486197
-0.146239 0.27755699 0.071486197
-0.13764501 0.27912501 0.071486197
-0.129052 0.28067201 0.071486197
-0.120458 0.28268 0.071486197
-0.068895496 -0.23153199 0.064772397
-0.068895496 -0.222938 0.064926296
-0.068895496 -0.21434399 0.064651698
-0.068895496 -0.205751 0.064827099
-0.077489302 -0.179969 0.063010499
-0.086083002 -0.171376 0.064024702
-0.086083002 -0.162782 0.0692515
-0.077489302 -0.171376 0.065137804
-0.068895496 -0.171376 0.063816398
-0.077489302 -0.162782 0.065732703
-0.068895496 -0.162782 0.065167397
-0.120458 -0.128407 0.070603803
-0.086083002 -0.15418801 0.069998801
-0.060301799 -0.179969 0.068104699
-0.060301799 -0.171376 0.070936598
-0.163427 0.27549899 0.0658307
-0.120458 0.28409299 0.067107402
-0.0875917 -0.166292 0.067005597
-0.102232 -0.26590699 0.080080003
-0.101941 -0.25731301 0.080080003
-0.101608 -0.24871901 0.080080003
-0.10151 -0.240126 0.080080003
-0.101357 -0.23153199 0.080080003
-0.101176 -0.222938 0.080080003
-0.101721 -0.21434399 0.080080003
-0.102323 -0.205751 0.080080003
-0.102741 -0.197157 0.080080003
-0.103271 -0.190531 0.080080003
-0.10354 -0.188563 0.080080003
-0.104581 -0.179969 0.080080003
-0.105798 -0.171376 0.080080003
-0.107146 -0.162782 0.080080003
-0.068895496 -0.182207 0.080080003
-0.069958404 -0.179969 0.080080003
-0.072186701 -0.171376 0.080080003
-0.068895496 -0.16912401 0.080080003
-0.109107 -0.15418801 0.080080003
-0.111745 -0.145594 0.080080003
-0.111864 -0.14513101 0.080080003
-0.114503 -0.13700099 0.080080003
-0.118916 -0.128407 0.080080003
-0.086083002 -0.140131 0.080080003
-0.086531103 -0.13700099 0.080080003
-0.086083002 -0.135582 0.080080003
-0.084124103 -0.13700099 0.080080003
-0.053572699 -0.179969 0.080080003
-0.054707602 -0.171376 0.080080003
-0.060914401 -0.162782 0.080080003
-0.054645501 -0.162782 0.080080003
-0.060301799 -0.161249 0.080080003
-0.215128 0.26690599 0.080080003
-0.223583 0.265313 0.080080003
-0.21498901 0.26693001 0.080080003
-0.206396 0.26847401 0.080080003
-0.19780201 0.26988399 0.080080003
-0.189208 0.270987 0.080080003
-0.18061399 0.271999 0.080080003
-0.17202 0.27305499 0.080080003
-0.163427 0.27418 0.080080003
-0.154833 0.27528799 0.080080003
-0.15318701 0.27549899 0.080080003
-0.146239 0.276411 0.080080003
-0.13764501 0.27763 0.080080003
-0.129052 0.27891299 0.080080003
-0.120458 0.280426 0.080080003
-0.103271 -0.21434399 0.071938597
-0.103271 -0.205751 0.076520301
-0.103271 -0.197157 0.078505799
-0.068895496 -0.197157 0.074737698
-0.068895496 -0.188563 0.078502104
-0.086083002 -0.162782 0.075051099
-0.077489302 -0.162782 0.074596196
-0.068895496 -0.162782 0.073953398
-0.111864 -0.145594 0.079642802
-0.086083002 -0.15418801 0.078105398
-0.086083002 -0.13700099 0.076820597
-0.060301799 -0.162782 0.072916798
-0.154833 0.27549899 0.0777511
-0.063645601 -0.16141599 0.075000502
-0.27514601 -0.41292799 0.080080003
-0.28671101 -0.40340701 0.080080003
-0.29233301 -0.40068501 0.080080003
-0.30436999 -0.38621899 0.080080003
-0.30907199 -0.369032 0.080080003
-0.30952001 -0.36749801 0.080080003
-0.31361499 -0.35184401 0.080080003
-0.31776199 -0.33465701 0.080080003
-0.32118201 -0.317469 0.080080003
-0.32355899 -0.300282 0.080080003
-0.324871 -0.28309399 0.080080003
-0.325387 -0.26590699 0.080080003
-0.32570601 -0.24871901 0.080080003
-0.32626501 -0.23153199 0.080080003
-0.32670799 -0.219318 0.080080003
-0.32686701 -0.21434399 0.080080003
-0.327362 -0.197157 0.080080003
-0.25795799 -0.42671201 0.080080003
-0.26713601 -0.42059401 0.080080003
-0.24077 -0.42791 0.080080003
-0.22406 -0.42059401 0.080080003
-0.223583 -0.420277 0.080080003
-0.206396 -0.41183901 0.080080003
-0.189208 -0.40615499 0.080080003
-0.181024 -0.40340701 0.080080003
-0.17202 -0.40101299 0.080080003
-0.140673 -0.300282 0.080080003
-0.144188 -0.28309399 0.080080003
-0.14662801 -0.26590699 0.080080003
-0.14889 -0.24871901 0.080080003
-0.151297 -0.23153199 0.080080003
-0.153667 -0.21434399 0.080080003
-0.154833 -0.204395 0.080080003
-0.155596 -0.197157 0.080080003
-0.125743 -0.33465701 0.080080003
-0.134335 -0.317469 0.080080003
-0.13764501 -0.30993599 0.080080003
-0.089044102 -0.33465701 0.080080003
-0.092095204 -0.317469 0.080080003
-0.0977979 -0.300282 0.080080003
-0.101958 -0.28309399 0.080080003
-0.051708002 -0.217233 0.080080003
-0.064366803 -0.21434399 0.080080003
-0.0506627 -0.21434399 0.080080003
-0.065738402 -0.197157 0.080080003
-0.050556902 -0.197157 0.080080003
-0.32797799 -0.179969 0.080080003
-0.328563 -0.162782 0.080080003
-0.32901999 -0.145594 0.080080003
-0.329236 -0.128407 0.080080003
-0.32892299 -0.111219 0.080080003
-0.328376 -0.094031997 0.080080003
-0.32797599 -0.076844402 0.080080003
-0.32756799 -0.059657 0.080080003
-0.32736301 -0.042469501 0.080080003
-0.32756799 -0.025281999 0.080080003
-0.32786399 -0.0080944598 0.080080003
-0.32848299 0.0090930499 0.080080003
-0.329175 0.026280601 0.080080003
-0.329337 0.043467999 0.080080003
-0.32915199 0.060655601 0.080080003
-0.32912299 0.077843003 0.080080003
-0.157249 -0.179969 0.080080003
-0.15826499 -0.162782 0.080080003
-0.157791 -0.145594 0.080080003
-0.154833 -0.132101 0.080080003
-0.153074 -0.128407 0.080080003
-0.13764501 -0.114923 0.080080003
-0.051708002 -0.19049799 0.080080003
-0.120458 -0.125222 0.080080003
0.102979 -0.40869099 0.080080003
0.094485402 -0.40340701 0.080080003
0.120167 -0.41495401 0.080080003
0.137354 -0.41714901 0.080080003
0.068604499 -0.362694 0.080080003
0.064073503 -0.35184401 0.080080003
0.0569047 -0.33465701 0.080080003
0.085791998 -0.394629 0.080080003
0.080558702 -0.38621899 0.080080003
0.071609303 -0.369032 0.080080003
0.17173 -0.42234099 0.080080003
0.164088 -0.42059401 0.080080003
0.154542 -0.418892 0.080080003
0.188917 -0.42712501 0.080080003
0.20610499 -0.42959499 0.080080003
0.27485499 -0.42639801 0.080080003
0.27331901 -0.42059401 0.080080003
0.25766701 -0.40704 0.080080003
0.24048001 -0.41405901 0.080080003
0.0135952 -0.300282 0.080080003
-0.00014549 -0.302176 0.080080003
0.034229498 -0.30809301 0.080080003
0.018051799 -0.300282 0.080080003
0.051417001 -0.32562399 0.080080003
0.0444999 -0.317469 0.080080003
0.017042 -0.300239 0.080080003
0.29204199 -0.42218101 0.080080003
0.29304299 -0.42059401 0.080080003
0.300652 -0.40340701 0.080080003
0.30686101 -0.38621899 0.080080003
0.30922899 -0.37974 0.080080003
0.31299701 -0.369032 0.080080003
0.3186 -0.35184401 0.080080003
0.32289699 -0.33465701 0.080080003
0.325506 -0.317469 0.080080003
0.326417 -0.304735 0.080080003
0.326653 -0.300282 0.080080003
0.327346 -0.28309399 0.080080003
0.327445 -0.26590699 0.080080003
0.326662 -0.24871901 0.080080003
0.326417 -0.245193 0.080080003
0.32545501 -0.23153199 0.080080003
0.32430699 -0.21434399 0.080080003
0.32355899 -0.197157 0.080080003
0.32370201 -0.179969 0.080080003
0.32460001 -0.162782 0.080080003
0.32587799 -0.145594 0.080080003
0.326417 -0.138684 0.080080003
0.32710999 -0.128407 0.080080003
0.32769099 -0.111219 0.080080003
0.327483 -0.094031997 0.080080003
0.326832 -0.076844402 0.080080003
0.326417 -0.067191303 0.080080003
0.326132 -0.059657 0.080080003
0.32591701 -0.042469501 0.080080003
0.32640699 -0.025281999 0.080080003
0.326417 -0.0250689 0.080080003
0.32746699 -0.0080944598 0.080080003
0.32883 0.0090930499 0.080080003
0.32982799 0.026280601 0.080080003
0.33028799 0.043467999 0.080080003
0.33045501 0.060655601 0.080080003
0.33020499 0.077843003 0.080080003
-0.32936499 0.095030501 0.080080003
-0.32930401 0.112218 0.080080003
-0.32897499 0.12940601 0.080080003
-0.32802299 0.146593 0.080080003
-0.32670799 0.15718301 0.080080003
-0.32550699 0.163781 0.080080003
-0.321161 0.180968 0.080080003
-0.31450799 0.198156 0.080080003
-0.30952001 0.208828 0.080080003
-0.30592901 0.215343 0.080080003
-0.29294699 0.232531 0.080080003
-0.29233301 0.233172 0.080080003
-0.27514601 0.246821 0.080080003
-0.26997399 0.249718 0.080080003
-0.25795799 0.255321 0.080080003
-0.24077 0.26146001 0.080080003
-0.10474 0.28409299 0.080080003
-0.103271 0.28451499 0.080080003
-0.086083002 0.29112899 0.080080003
-0.068895496 0.30126899 0.080080003
-0.068877801 0.30128101 0.080080003
-0.051708002 0.31579301 0.080080003
-0.049288701 0.318468 0.080080003
-0.034712698 0.33565599 0.080080003
-0.034520499 0.33593601 0.080080003
-0.025558701 0.35284299 0.080080003
-0.020195801 0.370031 0.080080003
-0.017333001 0.380171 0.080080003
-0.0151123 0.387218 0.080080003
-0.00694454 0.40440601 0.080080003
-0.00014549 0.405871 0.080080003
-0.00014549 0.49422199 0.080080003
-0.017005499 0.50753099 0.080080003
-0.017333001 0.50798398 0.080080003
-0.028491599 0.52471799 0.080080003
-0.034520499 0.53632599 0.080080003
-0.036456 0.541906 0.080080003
-0.034520499 0.55595601 0.080080003
-0.031192699 0.559093 0.080080003
-0.017333001 0.56420201 0.080080003
-0.00014549 0.56394601 0.080080003
0.102979 0.28116801 0.080080003
0.094609402 0.28409299 0.080080003
0.120167 0.27656299 0.080080003
0.137354 0.27301899 0.080080003
0.068604499 0.30045101 0.080080003
0.067690603 0.30128101 0.080080003
0.051417001 0.317433 0.080080003
0.050415199 0.318468 0.080080003
0.034229498 0.33458301 0.080080003
0.033128802 0.33565599 0.080080003
0.0181782 0.35284299 0.080080003
0.085791998 0.288169 0.080080003
0.17173 0.26677099 0.080080003
0.17099901 0.26690599 0.080080003
0.154542 0.26984799 0.080080003
0.188917 0.26338699 0.080080003
0.20610499 0.25907299 0.080080003
0.24048001 0.24690101 0.080080003
0.233481 0.249718 0.080080003
0.27485499 0.22864901 0.080080003
0.26888299 0.232531 0.080080003
0.25766701 0.23845001 0.080080003
0.22329199 0.253409 0.080080003
0.329418 0.095030501 0.080080003
0.32828301 0.112218 0.080080003
0.32725799 0.12940601 0.080080003
0.326417 0.144307 0.080080003
0.32626799 0.146593 0.080080003
0.323915 0.163781 0.080080003
0.31747001 0.180968 0.080080003
0.30922899 0.194959 0.080080003
0.306941 0.198156 0.080080003
0.29204199 0.21462101 0.080080003
0.29125801 0.215343 0.080080003
0.017042 0.354729 0.080080003
0.0106259 0.370031 0.080080003
0.0074811 0.387218 0.080080003
0.00173581 0.40440601 0.080080003
0.017042 0.50410998 0.080080003
0.019694 0.50753099 0.080080003
0.0310988 0.52471799 0.080080003
0.034229498 0.53139699 0.080080003
0.034229498 0.54836702 0.080080003
0.0203279 0.559093 0.080080003
0.035709899 0.541906 0.080080003
0.017042 0.56003499 0.080080003
-0.27514601 -0.42059401 0.066523597
-0.29233301 -0.40340701 0.070401199
-0.30952001 -0.369032 0.078032397
-0.32670799 -0.300282 0.066392504
-0.32670799 -0.28309399 0.072506398
-0.32670799 -0.26590699 0.0746594
-0.32670799 -0.24871901 0.076083697
-0.32670799 -0.23153199 0.078467198
-0.223583 -0.42059401 0.078558601
-0.154833 -0.21434399 0.0724722
-0.00014549 -0.300282 0.077312902
-0.051708002 -0.21434399 0.071881697
-0.051708002 -0.197157 0.072872497
-0.154833 -0.128407 0.068809897
0.24048001 -0.42059401 0.063513897
0.034229498 -0.300282 0.066691302
0.30922899 -0.38621899 0.070461497
0.326417 -0.33465701 0.065407
0.326417 -0.317469 0.0764957
0.326417 -0.23153199 0.076042697
0.326417 -0.21434399 0.071355201
0.326417 -0.197157 0.068590701
0.326417 -0.179969 0.069336198
0.326417 -0.162782 0.073015802
0.326417 -0.145594 0.077947997
0.326417 -0.059657 0.0786293
0.326417 -0.042469501 0.077687897
0.326417 -0.025281999 0.080036201
-0.32670799 0.163781 0.074004002
-0.086083002 0.30128101 0.066560403
-0.068895496 0.30128101 0.080068201
-0.068895496 0.318468 0.068124302
-0.051708002 0.318468 0.0789226
-0.051708002 0.33565599 0.073174998
-0.051708002 0.35284299 0.069629103
-0.034520499 0.35284299 0.0775472
-0.051708002 0.370031 0.066835903
-0.034520499 0.370031 0.076037697
-0.051708002 0.387218 0.064397603
-0.034520499 0.387218 0.074363798
-0.017333001 0.387218 0.079622597
-0.034520499 0.40440601 0.072573498
-0.034520499 0.42159301 0.071159303
-0.017333001 0.40440601 0.078486599
-0.017333001 0.42159301 0.077325299
-0.00014549 0.42159301 0.079202801
-0.034520499 0.43878099 0.069938697
-0.034520499 0.45596799 0.069160499
-0.017333001 0.43878099 0.076330699
-0.00014549 0.43878099 0.078297801
-0.017333001 0.45596799 0.075733699
-0.00014549 0.45596799 0.077831902
-0.034520499 0.47315601 0.069751501
-0.034520499 0.490343 0.071451701
-0.017333001 0.47315601 0.075842999
-0.00014549 0.47315601 0.078020498
-0.017333001 0.490343 0.077263802
-0.00014549 0.490343 0.079526402
-0.051708002 0.50753099 0.065131404
-0.034520499 0.50753099 0.074105702
-0.051708002 0.52471799 0.068832099
-0.034520499 0.52471799 0.0778732
-0.017333001 0.50753099 0.079997599
-0.051708002 0.541906 0.071954399
-0.051708002 0.559093 0.069976397
-0.034520499 0.559093 0.078992501
0.102979 0.28409299 0.069265001
0.068604499 0.30128101 0.079394102
0.051417001 0.318468 0.079625599
0.068604499 0.318468 0.068018101
0.034229498 0.33565599 0.079778999
0.034229498 0.35284299 0.075565599
0.051417001 0.33565599 0.072795004
0.051417001 0.35284299 0.067446098
0.085791998 0.30128101 0.0631079
0.17173 0.26690599 0.077998497
0.326417 0.146593 0.079507798
0.326417 0.163781 0.070560299
0.30922899 0.198156 0.070976697
0.29204199 0.215343 0.076799601
0.017042 0.370031 0.078500301
0.034229498 0.370031 0.072646298
0.017042 0.387218 0.077818602
0.034229498 0.387218 0.071192697
0.051417001 0.370031 0.063975997
0.017042 0.40440601 0.077383198
0.034229498 0.40440601 0.070288703
0.017042 0.42159301 0.076535396
0.034229498 0.42159301 0.069163904
0.017042 0.43878099 0.0758579
0.034229498 0.43878099 0.068762101
0.017042 0.45596799 0.075931102
0.034229498 0.45596799 0.069200702
0.017042 0.47315601 0.076572403
0.034229498 0.47315601 0.070254996
0.017042 0.490343 0.078154899
0.034229498 0.490343 0.0722344
0.034229498 0.50753099 0.075165898
0.034229498 0.52471799 0.078933701
0.051417001 0.50753099 0.064928502
0.051417001 0.52471799 0.069192998
0.034229498 0.559093 0.075420901
0.051417001 0.541906 0.071417503
0.051417001 0.559093 0.065196797
-0.31054899 -0.37408099 0.066677503
-0.29934499 -0.39599299 0.068875901
-0.100763 -0.272782 0.071486197
-0.062341899 -0.239647 0.062892497
-0.062283799 -0.220395 0.068341002
-0.067614503 -0.20451801 0.072643802
-0.0597075 -0.205751 0.066686302
-0.331406 0.00049927999 0.069767497
-0.33192801 0.017686799 0.069767497
-0.33227599 0.034874301 0.069767497
-0.0620871 -0.18819501 0.072891802
-0.120039 -0.127611 0.075562499
-0.23045801 0.26446599 0.071486197
-0.116529 0.282823 0.074688397
-0.058845699 0.55049902 0.066121601
-0.0558501 0.56324899 0.064309299
-0.0431142 0.56576502 0.067529298
-0.103483 -0.24871901 0.088673703
-0.103271 -0.24726699 0.088673703
-0.102987 -0.240126 0.088673703
-0.100999 -0.23153199 0.088673703
-0.098028101 -0.222938 0.088673703
-0.0955249 -0.21434399 0.088673703
-0.097832002 -0.205751 0.088673703
-0.099404901 -0.197157 0.088673703
-0.100112 -0.179969 0.088673703
-0.100667 -0.171376 0.088673703
-0.1024 -0.162782 0.088673703
-0.103271 -0.159154 0.088673703
-0.19780201 0.269328 0.088673703
-0.206396 0.26790801 0.088673703
-0.189208 0.27046099 0.088673703
-0.18061399 0.27146301 0.088673703
-0.17202 0.27242401 0.088673703
-0.163427 0.27344501 0.088673703
-0.154833 0.27452001 0.088673703
-0.14646199 0.27549899 0.088673703
-0.146239 0.27552399 0.088673703
-0.13764501 0.27645499 0.088673703
-0.129052 0.277428 0.088673703
-0.120458 0.278519 0.088673703
-0.103271 -0.24871901 0.087832302
-0.103271 -0.179969 0.081785098
-0.103271 -0.171376 0.082463004
-0.103271 -0.162782 0.084755599
-0.068895496 -0.179969 0.080742501
-0.068895496 -0.171376 0.0813687
-0.086083002 -0.13700099 0.0804471
-0.106382 -0.24871901 0.097267397
-0.105323 -0.240126 0.097267397
-0.103271 -0.23218 0.097267397
-0.102491 -0.23153199 0.097267397
-0.097586103 -0.222938 0.097267397
-0.094676703 -0.215418 0.097267397
-0.086083002 -0.21852399 0.097267397
-0.084814899 -0.21434399 0.097267397
-0.086083002 -0.21269999 0.097267397
-0.0899361 -0.205751 0.097267397
-0.092163198 -0.197157 0.097267397
-0.094676703 -0.17450701 0.097267397
-0.095189802 -0.171376 0.097267397
-0.094004102 -0.179969 0.097267397
-0.0976725 -0.162782 0.097267397
-0.099673301 -0.15418801 0.097267397
-0.102443 -0.145594 0.097267397
-0.103271 -0.14412101 0.097267397
-0.19780201 0.26857501 0.097267397
-0.206396 0.26717201 0.097267397
-0.189208 0.26975101 0.097267397
-0.18061399 0.27080399 0.097267397
-0.17202 0.271804 0.097267397
-0.163427 0.27278599 0.097267397
-0.154833 0.273779 0.097267397
-0.146239 0.27471301 0.097267397
-0.138128 0.27549899 0.097267397
-0.13764501 0.275545 0.097267397
-0.129052 0.27632001 0.097267397
-0.120458 0.27705199 0.097267397
0.120167 0.27494299 0.097267397
0.116578 0.27549899 0.097267397
0.111573 0.27628499 0.097267397
0.102979 0.277749 0.097267397
0.12876099 0.273671 0.097267397
0.137354 0.272293 0.097267397
-0.103271 -0.240126 0.089410096
-0.094676703 -0.21434399 0.088820599
-0.086083002 -0.21434399 0.096115902
-0.094676703 -0.205751 0.0921591
-0.094676703 -0.197157 0.094900697
-0.094676703 -0.179969 0.096687101
-0.103271 -0.15418801 0.092190698
-0.103271 -0.145594 0.096216299
-0.146239 0.27549899 0.088938102
-0.27514601 -0.404782 0.097267397
-0.27712101 -0.40340701 0.097267397
-0.29233301 -0.39481199 0.097267397
-0.29904401 -0.38621899 0.097267397
-0.30452999 -0.369032 0.097267397
-0.30952001 -0.35149401 0.097267397
-0.31341299 -0.33465701 0.097267397
-0.30942699 -0.35184401 0.097267397
-0.31642199 -0.317469 0.097267397
-0.31835699 -0.300282 0.097267397
-0.31945899 -0.28309399 0.097267397
-0.32016301 -0.26590699 0.097267397
-0.32052299 -0.24871901 0.097267397
-0.320824 -0.23153199 0.097267397
-0.32130599 -0.21434399 0.097267397
-0.32189301 -0.197157 0.097267397
-0.24077 -0.42432401 0.097267397
-0.255514 -0.42059401 0.097267397
-0.25795799 -0.418906 0.097267397
-0.227072 -0.42059401 0.097267397
-0.223583 -0.41878301 0.097267397
-0.206396 -0.410849 0.097267397
-0.189208 -0.405204 0.097267397
-0.18299399 -0.40340701 0.097267397
-0.17202 -0.400525 0.097267397
-0.13764501 -0.26346499 0.097267397
-0.141169 -0.24871901 0.097267397
-0.144976 -0.23153199 0.097267397
-0.148104 -0.21434399 0.097267397
-0.150499 -0.197157 0.097267397
-0.120458 -0.318865 0.097267397
-0.121474 -0.317469 0.097267397
-0.103271 -0.32501099 0.097267397
-0.130182 -0.300282 0.097267397
-0.099425897 -0.317469 0.097267397
-0.098722003 -0.300282 0.097267397
-0.134867 -0.28309399 0.097267397
-0.137334 -0.26590699 0.097267397
-0.103271 -0.28011101 0.097267397
-0.10713 -0.26590699 0.097267397
-0.102144 -0.28309399 0.097267397
-0.322337 -0.179969 0.097267397
-0.322835 -0.162782 0.097267397
-0.323309 -0.145594 0.097267397
-0.323504 -0.128407 0.097267397
-0.323149 -0.111219 0.097267397
-0.322418 -0.094031997 0.097267397
-0.32214499 -0.076844402 0.097267397
-0.321944 -0.059657 0.097267397
-0.321576 -0.042469501 0.097267397
-0.321679 -0.025281999 0.097267397
-0.322321 -0.0080944598 0.097267397
-0.32316801 0.0090930499 0.097267397
-0.323816 0.026280601 0.097267397
-0.32404199 0.043467999 0.097267397
-0.32381499 0.060655601 0.097267397
-0.32353199 0.077843003 0.097267397
-0.152174 -0.179969 0.097267397
-0.15321 -0.162782 0.097267397
-0.152842 -0.145594 0.097267397
-0.147938 -0.128407 0.097267397
-0.13764501 -0.116754 0.097267397
-0.11371 -0.128407 0.097267397
-0.120458 -0.119808 0.097267397
0.102979 -0.40828201 0.097267397
0.093789801 -0.40340701 0.097267397
0.120167 -0.41419101 0.097267397
0.137354 -0.41655901 0.097267397
0.068604499 -0.37362599 0.097267397
0.066058598 -0.369032 0.097267397
0.057523102 -0.35184401 0.097267397
0.051417001 -0.33950299 0.097267397
0.048780899 -0.33465701 0.097267397
0.085791998 -0.396795 0.097267397
0.076914497 -0.38621899 0.097267397
0.17173 -0.42108801 0.097267397
0.170164 -0.42059401 0.097267397
0.154542 -0.41775501 0.097267397
0.188917 -0.42623401 0.097267397
0.20610499 -0.426474 0.097267397
0.27485499 -0.42608199 0.097267397
0.27159101 -0.42059401 0.097267397
0.25766701 -0.40743199 0.097267397
0.24048001 -0.40676999 0.097267397
0.034229498 -0.31966299 0.097267397
0.0291862 -0.317469 0.097267397
0.017042 -0.314832 0.097267397
-0.00014549 -0.316392 0.097267397
0.288064 -0.42059401 0.097267397
0.29204199 -0.41152599 0.097267397
0.29461101 -0.40340701 0.097267397
0.30104101 -0.38621899 0.097267397
0.30782601 -0.369032 0.097267397
0.30922899 -0.364856 0.097267397
0.31313601 -0.35184401 0.097267397
0.31744099 -0.33465701 0.097267397
0.32025799 -0.317469 0.097267397
0.32164899 -0.300282 0.097267397
0.32226601 -0.28309399 0.097267397
0.32235101 -0.26590699 0.097267397
0.32165101 -0.24871901 0.097267397
0.32027599 -0.23153199 0.097267397
0.31871101 -0.21434399 0.097267397
0.31784201 -0.197157 0.097267397
0.31806999 -0.179969 0.097267397
0.31918001 -0.162782 0.097267397
0.320858 -0.145594 0.097267397
0.322514 -0.128407 0.097267397
0.32344401 -0.111219 0.097267397
0.32356599 -0.094031997 0.097267397
0.32313901 -0.076844402 0.097267397
0.322328 -0.059657 0.097267397
0.321814 -0.042469501 0.097267397
0.32215399 -0.025281999 0.097267397
0.323145 -0.0080944598 0.097267397
0.324375 0.0090930499 0.097267397
0.325351 0.026280601 0.097267397
0.32572401 0.043467999 0.097267397
0.325827 0.060655601 0.097267397
0.325712 0.077843003 0.097267397
-0.32374099 0.095030501 0.097267397
-0.32409599 0.112218 0.097267397
-0.324056 0.12940601 0.097267397
-0.323277 0.146593 0.097267397
-0.321181 0.163781 0.097267397
-0.317047 0.180968 0.097267397
-0.310451 0.198156 0.097267397
-0.30952001 0.200129 0.097267397
-0.30140999 0.215343 0.097267397
-0.29233301 0.228927 0.097267397
-0.289103 0.232531 0.097267397
-0.27514601 0.243679 0.097267397
-0.26458099 0.249718 0.097267397
-0.25795799 0.25283599 0.097267397
-0.24077 0.25924599 0.097267397
-0.223583 0.263776 0.097267397
-0.207956 0.26690599 0.097267397
-0.103271 0.279248 0.097267397
-0.086083002 0.28286499 0.097267397
-0.0813393 0.28409299 0.097267397
-0.068895496 0.28780401 0.097267397
-0.051708002 0.29413599 0.097267397
-0.034520499 0.30006 0.097267397
-0.029723899 0.30128101 0.097267397
-0.017333001 0.30330899 0.097267397
-0.00014549 0.30379301 0.097267397
0.085791998 0.28168401 0.097267397
0.076780401 0.28409299 0.097267397
0.034229498 0.29847899 0.097267397
0.0214337 0.30128101 0.097267397
0.017042 0.30201301 0.097267397
0.051417001 0.292707 0.097267397
0.068604499 0.286538 0.097267397
0.17173 0.265755 0.097267397
0.16586 0.26690599 0.097267397
0.154542 0.26905 0.097267397
0.188917 0.26202899 0.097267397
0.20610499 0.25728199 0.097267397
0.24048001 0.244166 0.097267397
0.227319 0.249718 0.097267397
0.27485499 0.22498199 0.097267397
0.26298699 0.232531 0.097267397
0.25766701 0.235351 0.097267397
0.22329199 0.25123799 0.097267397
0.32497999 0.095030501 0.097267397
0.32385001 0.112218 0.097267397
0.32277399 0.12940601 0.097267397
0.321531 0.146593 0.097267397
0.318398 0.163781 0.097267397
0.311634 0.180968 0.097267397
0.30922899 0.185775 0.097267397
0.301523 0.198156 0.097267397
0.29204199 0.20993499 0.097267397
0.286659 0.215343 0.097267397
-0.154833 -0.396745 0.097267397
-0.13764501 -0.39374 0.097267397
-0.120458 -0.38953599 0.097267397
-0.112026 -0.38621899 0.097267397
-0.103271 -0.38212201 0.097267397
-0.028858701 -0.33465701 0.097267397
-0.034520499 -0.33879399 0.097267397
0.22047199 -0.42059401 0.097267397
0.22329199 -0.418612 0.097267397
-0.30952001 -0.35184401 0.096932799
-0.32670799 -0.21434399 0.080621399
-0.32670799 -0.197157 0.082362801
-0.25795799 -0.42059401 0.094199002
-0.13764501 -0.300282 0.088001698
-0.13764501 -0.28309399 0.094237402
-0.13764501 -0.26590699 0.096946403
-0.154833 -0.197157 0.083629198
-0.120458 -0.33465701 0.087826803
-0.103271 -0.33465701 0.092753597
-0.103271 -0.26590699 0.0856089
-0.051708002 -0.21434399 0.080773696
-0.051708002 -0.197157 0.081174001
-0.32670799 -0.179969 0.084228501
-0.32670799 -0.162782 0.085917696
-0.32670799 -0.145594 0.087685101
-0.32670799 -0.128407 0.088535197
-0.32670799 -0.111219 0.087401502
-0.32670799 -0.094031997 0.085283101
-0.32670799 -0.076844402 0.083932303
-0.32670799 -0.059657 0.082718998
-0.32670799 -0.042469501 0.0820686
-0.32670799 -0.025281999 0.082682498
-0.32670799 -0.0080944598 0.0837541
-0.32670799 0.0090930499 0.085887298
-0.32670799 0.026280601 0.088178404
-0.32670799 0.043467999 0.088958897
-0.32670799 0.060655601 0.088345602
-0.32670799 0.077843003 0.087985002
-0.154833 -0.179969 0.089597799
-0.154833 -0.162782 0.092576198
-0.154833 -0.145594 0.091612801
0.068604499 -0.369032 0.089790396
0.051417001 -0.33465701 0.093340002
0.034229498 -0.317469 0.095194802
0.017042 -0.300282 0.080133297
0.29204199 -0.42059401 0.084804296
0.30922899 -0.369032 0.093088798
0.326417 -0.300282 0.081064701
0.326417 -0.28309399 0.083923496
0.326417 -0.26590699 0.084348999
0.326417 -0.24871901 0.081126601
0.326417 -0.128407 0.0830191
0.326417 -0.111219 0.085785702
0.326417 -0.094031997 0.085221499
0.326417 -0.076844402 0.082235202
0.326417 -0.0080944598 0.084689602
0.326417 0.0090930499 0.0900148
0.326417 0.026280601 0.093509302
0.326417 0.043467999 0.094855301
0.326417 0.060655601 0.095252797
0.326417 0.077843003 0.094740197
-0.32670799 0.095030501 0.0885804
-0.32670799 0.112218 0.088989697
-0.32670799 0.12940601 0.088628903
-0.32670799 0.146593 0.085438199
-0.29233301 0.232531 0.083759502
-0.103271 0.28409299 0.081211098
-0.086083002 0.28409299 0.094219498
-0.051708002 0.30128101 0.089950196
-0.034520499 0.30128101 0.0962805
-0.034520499 0.318468 0.085748799
-0.017333001 0.318468 0.089467697
-0.00014549 0.318468 0.090177402
-0.034520499 0.33565599 0.080138803
-0.017333001 0.33565599 0.084279202
-0.00014549 0.33565599 0.0853974
-0.017333001 0.35284299 0.081754297
-0.00014549 0.35284299 0.082783297
-0.017333001 0.370031 0.080647796
-0.00014549 0.370031 0.081581101
-0.00014549 0.387218 0.080941603
