# .PCD v0.7 - Point Cloud Data file format
VERSION 0.7
FIELDS x y z
SIZE 4 4 4
TYPE F F F
COUNT 1 1 1
WIDTH 1438
HEIGHT 1
VIEWPOINT 0 0 0 1 0 0 0
POINTS 1438
DATA ascii
0.085791998 -0.13700099 -0.32950199
0.077198297 -0.128407 -0.33216399
0.085791998 -0.128407 -0.32967201
0.094385698 -0.13700099 -0.326195
0.094385698 -0.128407 -0.32669801
0.077198297 -0.119813 -0.3321
0.085791998 -0.119813 -0.32988101
0.077198297 -0.111219 -0.33234501
0.085791998 -0.111219 -0.33027601
0.094385698 -0.119813 -0.327227
0.102979 -0.119813 -0.324415
0.094385698 -0.111219 -0.32774001
0.102979 -0.111219 -0.32490301
0.085791998 -0.102626 -0.33072099
0.085791998 -0.094031997 -0.33106199
0.094385698 -0.102626 -0.328087
0.102979 -0.102626 -0.32512999
0.094385698 -0.094031997 -0.32824299
0.102979 -0.094031997 -0.32514599
0.085791998 -0.085438199 -0.33131999
0.085791998 -0.076844402 -0.331541
0.094385698 -0.085438199 -0.328327
0.102979 -0.085438199 -0.32506299
0.094385698 -0.076844402 -0.32846099
0.102979 -0.076844402 -0.325093
0.085791998 -0.068250701 -0.331752
0.085791998 -0.059657 -0.33192301
0.094385698 -0.068250701 -0.32865301
0.102979 -0.068250701 -0.325252
0.094385698 -0.059657 -0.328798
0.102979 -0.059657 -0.32537401
0.085791998 -0.051063199 -0.332039
0.085791998 -0.042469501 -0.332156
0.094385698 -0.051063199 -0.32890999
0.102979 -0.051063199 -0.32550299
0.094385698 -0.042469501 -0.329101
0.102979 -0.042469501 -0.32567501
0.085791998 -0.0338757 -0.33234501
0.094385698 -0.0338757 -0.32936701
0.102979 -0.0338757 -0.325867
0.094385698 -0.025281999 -0.329662
0.102979 -0.025281999 -0.32604501
0.094385698 -0.0166882 -0.32991099
0.102979 -0.0166882 -0.326206
0.094385698 -0.0080944598 -0.33014199
0.102979 -0.0080944598 -0.326469
0.094385698 0.00049927999 -0.33049199
0.102979 0.00049927999 -0.32690099
0.094385698 0.0090930499 -0.33085501
0.102979 0.0090930499 -0.32741499
0.111573 0.0090930499 -0.323854
0.094385698 0.017686799 -0.33103999
0.102979 0.017686799 -0.327768
0.094385698 0.026280601 -0.331072
0.102979 0.026280601 -0.327995
0.094385698 0.034874301 -0.33093601
0.102979 0.034874301 -0.32804999
0.094385698 0.043467999 -0.33069101
0.102979 0.043467999 -0.32802099
0.111573 0.017686799 -0.32422999
0.111573 0.026280601 -0.32451501
0.111573 0.034874301 -0.32469299
0.111573 0.043467999 -0.32483599
0.094385698 0.0520618 -0.33047599
0.102979 0.0520618 -0.327968
0.094385698 0.060655601 -0.33024499
0.102979 0.060655601 -0.32782999
0.085791998 0.069249302 -0.33217099
0.085791998 0.077843003 -0.332073
0.094385698 0.069249302 -0.33000901
0.102979 0.069249302 -0.32774499
0.094385698 0.077843003 -0.32998699
0.102979 0.077843003 -0.32773799
0.111573 0.0520618 -0.32494199
0.111573 0.060655601 -0.32499701
0.111573 0.069249302 -0.32504699
0.111573 0.077843003 -0.325066
-0.103271 0.086436801 -0.32543299
-0.103271 0.095030501 -0.325499
-0.103271 0.103624 -0.32560199
-0.103271 0.112218 -0.32561699
-0.094676703 0.086436801 -0.327813
-0.086083002 0.086436801 -0.330201
-0.094676703 0.095030501 -0.32787099
-0.086083002 0.095030501 -0.330275
-0.094676703 0.103624 -0.32802701
-0.086083002 0.103624 -0.33045501
-0.094676703 0.112218 -0.328134
-0.086083002 0.112218 -0.33064499
-0.103271 0.120812 -0.32553199
-0.103271 0.12940601 -0.32539701
-0.103271 0.137999 -0.32509199
-0.103271 0.146593 -0.32452399
-0.094676703 0.120812 -0.32818899
-0.086083002 0.120812 -0.330746
-0.094676703 0.12940601 -0.328132
-0.086083002 0.12940601 -0.330632
-0.094676703 0.137999 -0.32787299
-0.086083002 0.137999 -0.330226
-0.094676703 0.146593 -0.327308
-0.086083002 0.146593 -0.32955399
-0.077489302 0.137999 -0.33224201
-0.077489302 0.146593 -0.331487
-0.094676703 0.155187 -0.32627401
-0.086083002 0.155187 -0.328509
-0.094676703 0.163781 -0.32481301
-0.086083002 0.163781 -0.32705799
-0.077489302 0.155187 -0.330378
-0.068895496 0.155187 -0.33211201
-0.077489302 0.163781 -0.32891399
-0.068895496 0.163781 -0.33067301
-0.086083002 0.172374 -0.32514101
-0.077489302 0.172374 -0.32700801
-0.068895496 0.172374 -0.32875001
-0.077489302 0.180968 -0.324581
-0.068895496 0.180968 -0.32632899
-0.060301799 0.163781 -0.33225399
-0.060301799 0.172374 -0.330477
-0.051708002 0.172374 -0.33199599
-0.060301799 0.180968 -0.328026
-0.051708002 0.180968 -0.32958099
-0.0431142 0.180968 -0.330955
-0.034520499 0.180968 -0.33207199
-0.060301799 0.18956199 -0.32504901
-0.051708002 0.18956199 -0.32636499
-0.0431142 0.18956199 -0.32760099
-0.034520499 0.18956199 -0.32874
-0.0431142 0.198156 -0.32389599
-0.034520499 0.198156 -0.324765
-0.0259268 0.18956199 -0.32973999
-0.017333001 0.18956199 -0.33048001
-0.0259268 0.198156 -0.32559201
-0.017333001 0.198156 -0.32622001
-0.0087392302 0.18956199 -0.330928
-0.00014549 0.18956199 -0.331312
-0.0087392302 0.198156 -0.32664999
-0.00014549 0.198156 -0.32707599
0.085791998 0.086436801 -0.33230099
0.094385698 0.086436801 -0.33024701
0.102979 0.086436801 -0.32789099
0.094385698 0.095030501 -0.33060801
0.102979 0.095030501 -0.32807299
0.094385698 0.103624 -0.33084199
0.102979 0.103624 -0.328078
0.094385698 0.112218 -0.33093101
0.102979 0.112218 -0.32798901
0.111573 0.086436801 -0.32510301
0.111573 0.095030501 -0.32508001
0.111573 0.103624 -0.32489699
0.111573 0.112218 -0.32466701
0.094385698 0.120812 -0.33091
0.102979 0.120812 -0.327932
0.094385698 0.12940601 -0.33078501
0.102979 0.12940601 -0.32783201
0.085791998 0.146593 -0.33238199
0.094385698 0.137999 -0.33056101
0.102979 0.137999 -0.32762599
0.094385698 0.146593 -0.33014399
0.102979 0.146593 -0.32719201
0.111573 0.120812 -0.324487
0.111573 0.12940601 -0.32429799
0.111573 0.137999 -0.32416001
0.111573 0.146593 -0.32383999
0.060010701 0.180968 -0.33199301
0.068604499 0.180968 -0.33071199
0.0084482403 0.18956199 -0.33168
0.017042 0.18956199 -0.33183199
0.0084482403 0.198156 -0.32749599
0.017042 0.198156 -0.32769001
0.025635799 0.18956199 -0.33160901
0.034229498 0.18956199 -0.331074
0.025635799 0.198156 -0.32759699
0.034229498 0.198156 -0.32707801
0.0428233 0.18956199 -0.330345
0.051417001 0.18956199 -0.32960099
0.0428233 0.198156 -0.32631001
0.051417001 0.198156 -0.325537
0.060010701 0.18956199 -0.328749
0.068604499 0.18956199 -0.32743999
0.060010701 0.198156 -0.32470801
0.085791998 0.155187 -0.33171201
0.085791998 0.163781 -0.33070001
0.094385698 0.155187 -0.32938999
0.102979 0.155187 -0.32648
0.094385698 0.163781 -0.32827201
0.102979 0.163781 -0.32541201
0.077198297 0.172374 -0.33120099
0.085791998 0.172374 -0.329065
0.077198297 0.180968 -0.328906
0.085791998 0.180968 -0.326695
0.094385698 0.172374 -0.32658601
0.094385698 0.180968 -0.324285
0.077198297 0.18956199 -0.32575199
-0.00014549 -0.421841 -0.31523299
-0.0056079598 -0.42059401 -0.31523299
-0.0087392302 -0.41940099 -0.31523299
-0.0151455 -0.41200101 -0.31523299
-0.0171034 -0.40340701 -0.31523299
-0.068895496 -0.37347999 -0.31523299
-0.075055502 -0.369032 -0.31523299
-0.103271 -0.34270701 -0.31523299
-0.110774 -0.33465701 -0.31523299
-0.086083002 -0.35888499 -0.31523299
-0.093520798 -0.35184401 -0.31523299
-0.077489302 -0.36684701 -0.31523299
-0.0844469 -0.36043799 -0.31523299
-0.094676703 -0.35079199 -0.31523299
-0.102726 -0.34325099 -0.31523299
-0.0431142 -0.38628799 -0.31523299
-0.043237198 -0.38621899 -0.31523299
-0.034520499 -0.39159799 -0.31523299
-0.060301799 -0.37799299 -0.31523299
-0.061174199 -0.377626 -0.31523299
-0.051708002 -0.38180399 -0.31523299
-0.0259268 -0.396898 -0.31523299
-0.0294213 -0.394813 -0.31523299
-0.017333001 -0.403173 -0.31523299
-0.120458 -0.32133499 -0.31523299
-0.122707 -0.317469 -0.31523299
-0.111864 -0.33337501 -0.31523299
-0.117333 -0.32606301 -0.31523299
-0.127399 -0.30887601 -0.31523299
-0.129052 -0.30527201 -0.31523299
-0.131014 -0.300282 -0.31523299
-0.133744 -0.291688 -0.31523299
-0.135713 -0.28309399 -0.31523299
-0.136636 -0.274501 -0.31523299
-0.136682 -0.26590699 -0.31523299
-0.1365 -0.25731301 -0.31523299
-0.136443 -0.24871901 -0.31523299
-0.13621099 -0.240126 -0.31523299
-0.135892 -0.23153199 -0.31523299
-0.135727 -0.222938 -0.31523299
-0.135785 -0.21434399 -0.31523299
-0.13608199 -0.205751 -0.31523299
-0.13640399 -0.197157 -0.31523299
-0.13764501 -0.168761 -0.31523299
-0.13793799 -0.162782 -0.31523299
-0.13827901 -0.15418801 -0.31523299
-0.138459 -0.145594 -0.31523299
-0.13839699 -0.13700099 -0.31523299
-0.138348 -0.128407 -0.31523299
-0.138521 -0.119813 -0.31523299
-0.13872901 -0.111219 -0.31523299
-0.138716 -0.102626 -0.31523299
-0.138054 -0.094031997 -0.31523299
-0.13764501 -0.090769 -0.31523299
-0.136685 -0.188563 -0.31523299
-0.13704699 -0.179969 -0.31523299
-0.1375 -0.171376 -0.31523299
-0.13702799 -0.085438199 -0.31523299
-0.13635001 -0.076844402 -0.31523299
-0.136161 -0.068250701 -0.31523299
-0.13624801 -0.059657 -0.31523299
-0.136335 -0.051063199 -0.31523299
-0.13637701 -0.042469501 -0.31523299
-0.13631301 -0.0338757 -0.31523299
-0.136347 -0.025281999 -0.31523299
-0.13644999 -0.0166882 -0.31523299
-0.13654999 -0.0080944598 -0.31523299
-0.136722 0.00049927999 -0.31523299
-0.13684601 0.0090930499 -0.31523299
-0.13685299 0.017686799 -0.31523299
-0.136757 0.026280601 -0.31523299
-0.136663 0.034874301 -0.31523299
-0.13641401 0.043467999 -0.31523299
-0.13578901 0.0520618 -0.31523299
-0.134813 0.060655601 -0.31523299
-0.13376901 0.069249302 -0.31523299
-0.13300399 0.077843003 -0.31523299
0.0084482403 -0.42386299 -0.31523299
0.017042 -0.42431101 -0.31523299
0.025635799 -0.42316699 -0.31523299
0.034229498 -0.42117599 -0.31523299
0.0355752 -0.42059401 -0.31523299
0.038500398 -0.41200101 -0.31523299
0.036910798 -0.40340701 -0.31523299
0.042376298 -0.394813 -0.31523299
0.0428233 -0.39424601 -0.31523299
0.049462199 -0.38621899 -0.31523299
0.051417001 -0.38387901 -0.31523299
0.056949101 -0.377626 -0.31523299
0.060010701 -0.37413001 -0.31523299
0.0640321 -0.369032 -0.31523299
0.068604499 -0.36274701 -0.31523299
0.070178099 -0.36043799 -0.31523299
0.075869597 -0.35184401 -0.31523299
0.077198297 -0.34981301 -0.31523299
0.082250699 -0.34325099 -0.31523299
0.085791998 -0.339147 -0.31523299
0.089814402 -0.33465701 -0.31523299
0.094385698 -0.32905701 -0.31523299
0.096800603 -0.32606301 -0.31523299
0.102979 -0.31850299 -0.31523299
0.103786 -0.317469 -0.31523299
0.109735 -0.30887601 -0.31523299
0.111573 -0.30546799 -0.31523299
0.113965 -0.300282 -0.31523299
0.117295 -0.291688 -0.31523299
0.119967 -0.28309399 -0.31523299
0.120167 -0.28237101 -0.31523299
0.121944 -0.274501 -0.31523299
0.123087 -0.26590699 -0.31523299
0.123484 -0.25731301 -0.31523299
0.123497 -0.24871901 -0.31523299
0.123231 -0.240126 -0.31523299
0.122753 -0.23153199 -0.31523299
0.121953 -0.222938 -0.31523299
0.120562 -0.21434399 -0.31523299
0.120167 -0.212064 -0.31523299
0.11932 -0.205751 -0.31523299
0.118778 -0.197157 -0.31523299
0.119189 -0.188563 -0.31523299
0.120167 -0.181457 -0.31523299
0.120419 -0.179969 -0.31523299
0.121936 -0.171376 -0.31523299
0.123449 -0.162782 -0.31523299
0.124888 -0.15418801 -0.31523299
0.126522 -0.145594 -0.31523299
0.12833101 -0.13700099 -0.31523299
0.12876099 -0.134859 -0.31523299
0.129889 -0.128407 -0.31523299
0.130971 -0.119813 -0.31523299
0.131713 -0.111219 -0.31523299
0.132039 -0.102626 -0.31523299
0.132064 -0.094031997 -0.31523299
0.132017 -0.085438199 -0.31523299
0.131963 -0.076844402 -0.31523299
0.131914 -0.068250701 -0.31523299
0.131816 -0.059657 -0.31523299
0.13158 -0.051063199 -0.31523299
0.131155 -0.042469501 -0.31523299
0.13061599 -0.0338757 -0.31523299
0.130265 -0.025281999 -0.31523299
0.130293 -0.0166882 -0.31523299
0.13033 -0.0080944598 -0.31523299
0.130115 0.00049927999 -0.31523299
0.12988 0.0090930499 -0.31523299
0.129825 0.017686799 -0.31523299
0.12994701 0.026280601 -0.31523299
0.130339 0.034874301 -0.31523299
0.131097 0.043467999 -0.31523299
0.13207699 0.0520618 -0.31523299
0.132765 0.060655601 -0.31523299
0.132991 0.069249302 -0.31523299
0.132847 0.077843003 -0.31523299
-0.13253 0.086436801 -0.31523299
-0.13195901 0.095030501 -0.31523299
-0.131238 0.103624 -0.31523299
-0.13042299 0.112218 -0.31523299
-0.12959 0.120812 -0.31523299
-0.129052 0.127325 -0.31523299
-0.12890799 0.12940601 -0.31523299
-0.128093 0.137999 -0.31523299
-0.12666599 0.146593 -0.31523299
-0.12459 0.155187 -0.31523299
-0.121365 0.163781 -0.31523299
-0.120458 0.165741 -0.31523299
-0.116742 0.172374 -0.31523299
-0.111864 0.17908999 -0.31523299
-0.110277 0.180968 -0.31523299
-0.103271 0.187857 -0.31523299
-0.10115 0.18956199 -0.31523299
-0.094676703 0.19454899 -0.31523299
-0.089292303 0.198156 -0.31523299
-0.086083002 0.199976 -0.31523299
-0.077489302 0.204475 -0.31523299
-0.071930297 0.20674901 -0.31523299
-0.068895496 0.20778599 -0.31523299
-0.060301799 0.210292 -0.31523299
-0.051708002 0.212393 -0.31523299
-0.0431142 0.21436501 -0.31523299
-0.0385492 0.215343 -0.31523299
-0.034520499 0.21617199 -0.31523299
-0.0259268 0.217684 -0.31523299
-0.017333001 0.218466 -0.31523299
-0.0087392302 0.21862701 -0.31523299
-0.00014549 0.218637 -0.31523299
0.132654 0.086436801 -0.31523299
0.132498 0.095030501 -0.31523299
0.132367 0.103624 -0.31523299
0.132147 0.112218 -0.31523299
0.131634 0.120812 -0.31523299
0.131109 0.12940601 -0.31523299
0.130656 0.137999 -0.31523299
0.130116 0.146593 -0.31523299
0.068604499 0.21432599 -0.31523299
0.063568696 0.215343 -0.31523299
0.12909 0.155187 -0.31523299
0.12876099 0.15706301 -0.31523299
0.12718 0.163781 -0.31523299
0.120167 0.178854 -0.31523299
0.118613 0.180968 -0.31523299
0.123857 0.172374 -0.31523299
0.102979 0.19749799 -0.31523299
0.102154 0.198156 -0.31523299
0.077198297 0.21181899 -0.31523299
0.085791998 0.20825399 -0.31523299
0.094385698 0.20365401 -0.31523299
0.0889033 0.20674901 -0.31523299
0.111573 0.18936101 -0.31523299
0.111391 0.18956199 -0.31523299
0.0084482403 0.21847899 -0.31523299
0.017042 0.21806 -0.31523299
0.025635799 0.21804801 -0.31523299
0.034229498 0.21842401 -0.31523299
0.0428233 0.218228 -0.31523299
0.051417001 0.217281 -0.31523299
0.060010701 0.215947 -0.31523299
-0.00014549 -0.42059401 -0.31562001
-0.0087392302 -0.41200101 -0.31570899
-0.00014549 -0.41200101 -0.31635499
-0.0087392302 -0.40340701 -0.315725
-0.00014549 -0.40340701 -0.31637201
-0.068895496 -0.369032 -0.31653801
-0.103271 -0.33465701 -0.317579
-0.086083002 -0.35184401 -0.317368
-0.077489302 -0.36043799 -0.31712401
-0.068895496 -0.36043799 -0.31902099
-0.077489302 -0.35184401 -0.31972799
-0.068895496 -0.35184401 -0.32130799
-0.094676703 -0.34325099 -0.31759
-0.086083002 -0.34325099 -0.32019299
-0.094676703 -0.33465701 -0.32044601
-0.086083002 -0.33465701 -0.32287499
-0.077489302 -0.34325099 -0.322225
-0.068895496 -0.34325099 -0.32352301
-0.0431142 -0.38621899 -0.31524801
-0.034520499 -0.38621899 -0.31632999
-0.060301799 -0.377626 -0.31533799
-0.051708002 -0.377626 -0.316358
-0.060301799 -0.369032 -0.317826
-0.051708002 -0.369032 -0.31880599
-0.0431142 -0.377626 -0.31737599
-0.034520499 -0.377626 -0.31834301
-0.0431142 -0.369032 -0.31968001
-0.034520499 -0.369032 -0.32041401
-0.0259268 -0.394813 -0.31555301
-0.017333001 -0.394813 -0.316248
-0.0259268 -0.38621899 -0.31725401
-0.017333001 -0.38621899 -0.31800801
-0.0087392302 -0.394813 -0.316836
-0.00014549 -0.394813 -0.31742799
-0.0087392302 -0.38621899 -0.31868401
-0.00014549 -0.38621899 -0.31927899
-0.0259268 -0.377626 -0.31918001
-0.017333001 -0.377626 -0.31992799
-0.0259268 -0.369032 -0.321156
-0.017333001 -0.369032 -0.32193801
-0.0087392302 -0.377626 -0.32060099
-0.00014549 -0.377626 -0.32117999
-0.0087392302 -0.369032 -0.32260901
-0.00014549 -0.369032 -0.3231
-0.060301799 -0.36043799 -0.32016999
-0.051708002 -0.36043799 -0.32108501
-0.060301799 -0.35184401 -0.322312
-0.051708002 -0.35184401 -0.32317701
-0.0431142 -0.36043799 -0.321913
-0.034520499 -0.36043799 -0.322633
-0.0259268 -0.36043799 -0.32335201
-0.120458 -0.317469 -0.31600401
-0.111864 -0.32606301 -0.31702501
-0.103271 -0.32606301 -0.32011601
-0.111864 -0.317469 -0.31913301
-0.103271 -0.317469 -0.322301
-0.120458 -0.30887601 -0.317702
-0.129052 -0.300282 -0.31593201
-0.120458 -0.300282 -0.319166
-0.111864 -0.30887601 -0.32096499
-0.111864 -0.300282 -0.322299
-0.094676703 -0.32606301 -0.32295999
-0.129052 -0.291688 -0.316899
-0.120458 -0.291688 -0.32017201
-0.129052 -0.28309399 -0.31753501
-0.120458 -0.28309399 -0.320701
-0.111864 -0.291688 -0.32317799
-0.111864 -0.28309399 -0.32360399
-0.129052 -0.274501 -0.31779099
-0.120458 -0.274501 -0.320869
-0.129052 -0.26590699 -0.31784099
-0.120458 -0.26590699 -0.32091501
-0.111864 -0.274501 -0.32374299
-0.111864 -0.26590699 -0.32377401
-0.129052 -0.25731301 -0.317866
-0.120458 -0.25731301 -0.320959
-0.129052 -0.24871901 -0.31792399
-0.120458 -0.24871901 -0.32104
-0.111864 -0.25731301 -0.32379499
-0.129052 -0.240126 -0.31794399
-0.120458 -0.240126 -0.32112199
-0.129052 -0.23153199 -0.31783801
-0.120458 -0.23153199 -0.32107401
-0.111864 -0.23153199 -0.32380599
-0.129052 -0.222938 -0.31772199
-0.120458 -0.222938 -0.32093701
-0.129052 -0.21434399 -0.31768
-0.120458 -0.21434399 -0.32085499
-0.111864 -0.222938 -0.32370299
-0.111864 -0.21434399 -0.32362899
-0.129052 -0.205751 -0.317738
-0.120458 -0.205751 -0.32087901
-0.129052 -0.197157 -0.31789199
-0.120458 -0.197157 -0.321051
-0.111864 -0.205751 -0.32365
-0.111864 -0.197157 -0.323791
-0.13764501 -0.162782 -0.31535
-0.13764501 -0.15418801 -0.315487
-0.13764501 -0.145594 -0.31554899
-0.13764501 -0.13700099 -0.315521
-0.13764501 -0.128407 -0.31549701
-0.13764501 -0.119813 -0.31556201
-0.13764501 -0.111219 -0.31565699
-0.13764501 -0.102626 -0.315658
-0.13764501 -0.094031997 -0.31539801
-0.129052 -0.188563 -0.318104
-0.120458 -0.188563 -0.32132101
-0.129052 -0.179969 -0.31832501
-0.120458 -0.179969 -0.32160601
-0.129052 -0.171376 -0.31857899
-0.120458 -0.171376 -0.32191899
-0.129052 -0.162782 -0.31879699
-0.120458 -0.162782 -0.32217699
-0.129052 -0.15418801 -0.318939
-0.120458 -0.15418801 -0.322267
-0.129052 -0.145594 -0.318973
-0.120458 -0.145594 -0.32222301
-0.129052 -0.13700099 -0.31886801
-0.120458 -0.13700099 -0.32207501
-0.129052 -0.128407 -0.318811
-0.120458 -0.128407 -0.32202899
-0.129052 -0.119813 -0.31890899
-0.120458 -0.119813 -0.32214001
-0.129052 -0.111219 -0.31910601
-0.120458 -0.111219 -0.32229301
-0.129052 -0.102626 -0.31921899
-0.120458 -0.102626 -0.32248199
-0.129052 -0.094031997 -0.319074
-0.120458 -0.094031997 -0.322505
-0.129052 -0.085438199 -0.318766
-0.120458 -0.085438199 -0.322357
-0.129052 -0.076844402 -0.31854099
-0.120458 -0.076844402 -0.32223901
-0.129052 -0.068250701 -0.318477
-0.120458 -0.068250701 -0.32216701
-0.129052 -0.059657 -0.318515
-0.120458 -0.059657 -0.32215101
-0.129052 -0.051063199 -0.31854999
-0.120458 -0.051063199 -0.32215801
-0.129052 -0.042469501 -0.31854299
-0.120458 -0.042469501 -0.322124
-0.129052 -0.0338757 -0.31849
-0.120458 -0.0338757 -0.32207
-0.129052 -0.025281999 -0.31847599
-0.120458 -0.025281999 -0.322072
-0.129052 -0.0166882 -0.318508
-0.120458 -0.0166882 -0.32202801
-0.129052 -0.0080944598 -0.31847599
-0.120458 -0.0080944598 -0.32190099
-0.129052 0.00049927999 -0.31847
-0.120458 0.00049927999 -0.32185
-0.129052 0.0090930499 -0.31851599
-0.120458 0.0090930499 -0.32188499
-0.129052 0.017686799 -0.31853899
-0.120458 0.017686799 -0.32193601
-0.129052 0.026280601 -0.31852201
-0.120458 0.026280601 -0.32195199
-0.129052 0.034874301 -0.318461
-0.120458 0.034874301 -0.321879
-0.129052 0.043467999 -0.31830299
-0.120458 0.043467999 -0.321639
-0.129052 0.0520618 -0.317936
-0.120458 0.0520618 -0.32124099
-0.129052 0.060655601 -0.31750101
-0.120458 0.060655601 -0.32086
-0.111864 0.060655601 -0.32368299
-0.129052 0.069249302 -0.317159
-0.120458 0.069249302 -0.32062101
-0.129052 0.077843003 -0.316912
-0.120458 0.077843003 -0.320467
-0.111864 0.069249302 -0.32340801
-0.111864 0.077843003 -0.32321799
0.0084482403 -0.42059401 -0.31638199
0.017042 -0.42059401 -0.31656101
0.025635799 -0.42059401 -0.31609899
0.034229498 -0.42059401 -0.31542701
0.0084482403 -0.41200101 -0.31697801
0.017042 -0.41200101 -0.31713
0.0084482403 -0.40340701 -0.316888
0.017042 -0.40340701 -0.31694901
0.025635799 -0.41200101 -0.31668299
0.034229498 -0.41200101 -0.31584701
0.025635799 -0.40340701 -0.31650099
0.034229498 -0.40340701 -0.31558001
0.0084482403 -0.394813 -0.31790701
0.017042 -0.394813 -0.31797001
0.0084482403 -0.38621899 -0.31969199
0.017042 -0.38621899 -0.31974399
0.025635799 -0.394813 -0.31752601
0.034229498 -0.394813 -0.316598
0.025635799 -0.38621899 -0.31923899
0.034229498 -0.38621899 -0.31824401
0.0084482403 -0.377626 -0.32159701
0.017042 -0.377626 -0.32164001
0.0084482403 -0.369032 -0.32337901
0.017042 -0.369032 -0.32338399
0.025635799 -0.377626 -0.32112801
0.034229498 -0.377626 -0.320079
0.025635799 -0.369032 -0.32293299
0.034229498 -0.369032 -0.321926
0.0428233 -0.38621899 -0.31674999
0.0428233 -0.377626 -0.31860799
0.051417001 -0.377626 -0.316641
0.0428233 -0.369032 -0.32052901
0.051417001 -0.369032 -0.318712
0.060010701 -0.369032 -0.316383
0.034229498 -0.36043799 -0.323782
0.0428233 -0.36043799 -0.322501
0.051417001 -0.36043799 -0.32077399
0.051417001 -0.35184401 -0.32268599
0.060010701 -0.36043799 -0.31840101
0.068604499 -0.36043799 -0.315703
0.060010701 -0.35184401 -0.32043099
0.068604499 -0.35184401 -0.31755301
0.060010701 -0.34325099 -0.322393
0.068604499 -0.34325099 -0.31956601
0.068604499 -0.33465701 -0.32189599
0.077198297 -0.34325099 -0.31665701
0.077198297 -0.33465701 -0.31903899
0.085791998 -0.33465701 -0.316374
0.077198297 -0.32606301 -0.321646
0.085791998 -0.32606301 -0.318856
0.085791998 -0.317469 -0.32142699
0.094385698 -0.32606301 -0.316019
0.094385698 -0.317469 -0.318526
0.102979 -0.317469 -0.31550699
0.085791998 -0.30887601 -0.32360801
0.094385698 -0.30887601 -0.32092801
0.102979 -0.30887601 -0.31767401
0.094385698 -0.300282 -0.32284799
0.102979 -0.300282 -0.31956199
0.111573 -0.300282 -0.31613001
0.102979 -0.291688 -0.321064
0.102979 -0.28309399 -0.32222301
0.102979 -0.274501 -0.32299
0.102979 -0.26590699 -0.32336801
0.111573 -0.291688 -0.317507
0.111573 -0.28309399 -0.318721
0.111573 -0.274501 -0.31954199
0.120167 -0.274501 -0.31594601
0.111573 -0.26590699 -0.319998
0.120167 -0.26590699 -0.316394
0.102979 -0.25731301 -0.32356501
0.102979 -0.24871901 -0.323587
0.102979 -0.240126 -0.323542
0.102979 -0.23153199 -0.323441
0.111573 -0.25731301 -0.32024199
0.120167 -0.25731301 -0.316569
0.111573 -0.24871901 -0.32023501
0.120167 -0.24871901 -0.31658399
0.111573 -0.240126 -0.32013899
0.120167 -0.240126 -0.316493
0.111573 -0.23153199 -0.31999999
0.120167 -0.23153199 -0.31630099
0.102979 -0.222938 -0.32323799
0.102979 -0.21434399 -0.32294899
0.102979 -0.205751 -0.322611
0.102979 -0.197157 -0.32245001
0.111573 -0.222938 -0.31965199
0.120167 -0.222938 -0.31596401
0.111573 -0.21434399 -0.31916499
0.120167 -0.21434399 -0.31540099
0.111573 -0.205751 -0.31865099
0.111573 -0.197157 -0.318362
0.102979 -0.188563 -0.32245499
0.102979 -0.179969 -0.322557
0.102979 -0.171376 -0.32260001
0.102979 -0.162782 -0.32258901
0.111573 -0.188563 -0.31845099
0.111573 -0.179969 -0.31875199
0.120167 -0.179969 -0.31532601
0.111573 -0.171376 -0.31913301
0.120167 -0.171376 -0.31587601
0.111573 -0.162782 -0.31948501
0.120167 -0.162782 -0.316403
0.102979 -0.15418801 -0.32263601
0.102979 -0.145594 -0.32286
0.102979 -0.13700099 -0.323291
0.102979 -0.128407 -0.32382599
0.111573 -0.15418801 -0.31972599
0.120167 -0.15418801 -0.31686801
0.111573 -0.145594 -0.32005101
0.120167 -0.145594 -0.31732899
0.111573 -0.13700099 -0.320553
0.120167 -0.13700099 -0.31788501
0.111573 -0.128407 -0.32118401
0.120167 -0.128407 -0.31849399
0.12876099 -0.128407 -0.31562001
0.111573 -0.119813 -0.32183701
0.120167 -0.119813 -0.31904599
0.111573 -0.111219 -0.322294
0.120167 -0.111219 -0.31944001
0.12876099 -0.119813 -0.31603
0.12876099 -0.111219 -0.31630501
0.111573 -0.102626 -0.32245499
0.120167 -0.102626 -0.31957901
0.111573 -0.094031997 -0.32237601
0.120167 -0.094031997 -0.31948999
0.12876099 -0.102626 -0.31643
0.12876099 -0.094031997 -0.316432
0.111573 -0.085438199 -0.322191
0.120167 -0.085438199 -0.31933799
0.111573 -0.076844402 -0.32217401
0.120167 -0.076844402 -0.31929401
0.12876099 -0.085438199 -0.316369
0.12876099 -0.076844402 -0.316342
0.111573 -0.068250701 -0.32232299
0.120167 -0.068250701 -0.31934401
0.111573 -0.059657 -0.32239199
0.120167 -0.059657 -0.319383
0.12876099 -0.068250701 -0.31634501
0.12876099 -0.059657 -0.31632099
0.111573 -0.051063199 -0.322465
0.120167 -0.051063199 -0.31940299
0.111573 -0.042469501 -0.32254899
0.120167 -0.042469501 -0.31936201
0.12876099 -0.051063199 -0.31626001
0.12876099 -0.042469501 -0.31612599
0.111573 -0.0338757 -0.32257399
0.120167 -0.0338757 -0.319215
0.111573 -0.025281999 -0.32260701
0.120167 -0.025281999 -0.319103
0.12876099 -0.0338757 -0.31592199
0.12876099 -0.025281999 -0.315786
0.111573 -0.0166882 -0.32269499
0.120167 -0.0166882 -0.31916201
0.111573 -0.0080944598 -0.32298899
0.120167 -0.0080944598 -0.319388
0.12876099 -0.0166882 -0.315813
0.12876099 -0.0080944598 -0.315862
0.111573 0.00049927999 -0.323421
0.120167 0.00049927999 -0.31967899
0.120167 0.0090930499 -0.31993699
0.12876099 0.00049927999 -0.315815
0.12876099 0.0090930499 -0.31574699
0.120167 0.017686799 -0.320218
0.120167 0.026280601 -0.32049501
0.12876099 0.017686799 -0.31574801
0.12876099 0.026280601 -0.31581801
0.120167 0.034874301 -0.32073101
0.120167 0.043467999 -0.321042
0.12876099 0.034874301 -0.31601101
0.12876099 0.043467999 -0.31638199
0.120167 0.0520618 -0.321358
0.120167 0.060655601 -0.32161099
0.12876099 0.0520618 -0.31685501
0.12876099 0.060655601 -0.317242
0.120167 0.069249302 -0.321776
0.120167 0.077843003 -0.32183099
0.12876099 0.069249302 -0.317395
0.12876099 0.077843003 -0.31735
-0.129052 0.086436801 -0.31672999
-0.120458 0.086436801 -0.32031301
-0.129052 0.095030501 -0.31651399
-0.120458 0.095030501 -0.320173
-0.111864 0.086436801 -0.323131
-0.111864 0.095030501 -0.32312399
-0.129052 0.103624 -0.31621701
-0.120458 0.103624 -0.320034
-0.129052 0.112218 -0.31587499
-0.120458 0.112218 -0.319864
-0.111864 0.103624 -0.323136
-0.111864 0.112218 -0.323084
-0.129052 0.120812 -0.315496
-0.120458 0.120812 -0.31957299
-0.120458 0.12940601 -0.319125
-0.111864 0.120812 -0.32290101
-0.111864 0.12940601 -0.32259101
-0.120458 0.137999 -0.318578
-0.120458 0.146593 -0.31784001
-0.111864 0.137999 -0.32213199
-0.111864 0.146593 -0.32146001
-0.120458 0.155187 -0.31689799
-0.120458 0.163781 -0.31559399
-0.111864 0.155187 -0.32045299
-0.103271 0.155187 -0.32358599
-0.111864 0.163781 -0.31896701
-0.103271 0.163781 -0.32215601
-0.111864 0.172374 -0.31701499
-0.103271 0.172374 -0.32019201
-0.103271 0.180968 -0.31763801
-0.094676703 0.172374 -0.32297501
-0.094676703 0.180968 -0.32046801
-0.086083002 0.180968 -0.32276401
-0.094676703 0.18956199 -0.317251
-0.086083002 0.18956199 -0.31974
-0.086083002 0.198156 -0.31607801
-0.077489302 0.18956199 -0.32185599
-0.068895496 0.18956199 -0.32361299
-0.077489302 0.198156 -0.31824699
-0.068895496 0.198156 -0.32016701
-0.068895496 0.20674901 -0.31579301
-0.060301799 0.198156 -0.321738
-0.051708002 0.198156 -0.32294399
-0.060301799 0.20674901 -0.31722099
-0.051708002 0.20674901 -0.31847101
-0.0431142 0.20674901 -0.31962901
-0.034520499 0.20674901 -0.32061201
-0.034520499 0.215343 -0.31569499
-0.0259268 0.20674901 -0.32137999
-0.017333001 0.20674901 -0.32184601
-0.0259268 0.215343 -0.316488
-0.017333001 0.215343 -0.31685299
-0.0087392302 0.20674901 -0.32210201
-0.00014549 0.20674901 -0.32236499
-0.0087392302 0.215343 -0.316982
-0.00014549 0.215343 -0.317081
0.120167 0.086436801 -0.32173699
0.120167 0.095030501 -0.32160699
0.12876099 0.086436801 -0.31721801
0.12876099 0.095030501 -0.31712601
0.120167 0.103624 -0.32139599
0.120167 0.112218 -0.32108501
0.12876099 0.103624 -0.31701601
0.12876099 0.112218 -0.31683701
0.120167 0.120812 -0.320806
0.120167 0.12940601 -0.320557
0.12876099 0.120812 -0.31658599
0.12876099 0.12940601 -0.31634799
0.120167 0.137999 -0.32038701
0.120167 0.146593 -0.32003099
0.12876099 0.137999 -0.31613299
0.12876099 0.146593 -0.315864
0.0084482403 0.20674901 -0.32265201
0.017042 0.20674901 -0.322806
0.0084482403 0.215343 -0.31710801
0.017042 0.215343 -0.316989
0.025635799 0.20674901 -0.322804
0.034229498 0.20674901 -0.32269999
0.025635799 0.215343 -0.31699699
0.034229498 0.215343 -0.31721401
0.068604499 0.198156 -0.32368499
0.0428233 0.20674901 -0.32227999
0.051417001 0.20674901 -0.32147199
0.0428233 0.215343 -0.31705099
0.051417001 0.215343 -0.31639501
0.060010701 0.20674901 -0.32051301
0.068604499 0.20674901 -0.319383
0.060010701 0.215343 -0.31558999
0.102979 0.172374 -0.323814
0.102979 0.180968 -0.321513
0.111573 0.155187 -0.32321501
0.120167 0.155187 -0.31940299
0.111573 0.163781 -0.32231501
0.120167 0.163781 -0.318472
0.12876099 0.155187 -0.315386
0.111573 0.172374 -0.32064301
0.120167 0.172374 -0.316879
0.111573 0.180968 -0.31807101
0.085791998 0.18956199 -0.32381999
0.077198297 0.198156 -0.32227999
0.085791998 0.198156 -0.32027501
0.094385698 0.18956199 -0.32140899
0.102979 0.18956199 -0.31837499
0.094385698 0.198156 -0.31769601
0.077198297 0.20674901 -0.31785899
0.085791998 0.20674901 -0.31598601
-0.068895496 -0.420131 -0.30663899
-0.072297499 -0.41200101 -0.30663899
-0.075279698 -0.40340701 -0.30663899
-0.060301799 -0.42405799 -0.30663899
-0.068317197 -0.42059401 -0.30663899
-0.051708002 -0.426292 -0.30663899
-0.034520499 -0.42957401 -0.30663899
-0.036225799 -0.42918801 -0.30663899
-0.0431142 -0.427894 -0.30663899
-0.0259268 -0.43097001 -0.30663899
-0.017333001 -0.43178001 -0.30663899
-0.0087392302 -0.43253201 -0.30663899
-0.00014549 -0.43333799 -0.30663899
-0.103271 -0.37310901 -0.30663899
-0.106828 -0.369032 -0.30663899
-0.086083002 -0.39137301 -0.30663899
-0.090671301 -0.38621899 -0.30663899
-0.077489302 -0.40064001 -0.30663899
-0.082792699 -0.394813 -0.30663899
-0.094676703 -0.38196701 -0.30663899
-0.099045902 -0.377626 -0.30663899
-0.120458 -0.353257 -0.30663899
-0.121632 -0.35184401 -0.30663899
-0.111864 -0.36327699 -0.30663899
-0.114399 -0.36043799 -0.30663899
-0.12846801 -0.34325099 -0.30663899
-0.129052 -0.34243 -0.30663899
-0.134519 -0.33465701 -0.30663899
-0.13764501 -0.32962599 -0.30663899
-0.139805 -0.32606301 -0.30663899
-0.144949 -0.317469 -0.30663899
-0.146239 -0.31502399 -0.30663899
-0.149296 -0.30887601 -0.30663899
-0.15290999 -0.300282 -0.30663899
-0.154833 -0.29301399 -0.30663899
-0.155113 -0.291688 -0.30663899
-0.156573 -0.28309399 -0.30663899
-0.157277 -0.274501 -0.30663899
-0.157498 -0.26590699 -0.30663899
-0.157488 -0.25731301 -0.30663899
-0.15706301 -0.24871901 -0.30663899
-0.156453 -0.240126 -0.30663899
-0.156041 -0.23153199 -0.30663899
-0.156047 -0.222938 -0.30663899
-0.15629201 -0.21434399 -0.30663899
-0.156385 -0.205751 -0.30663899
-0.15636601 -0.197157 -0.30663899
-0.156358 -0.188563 -0.30663899
-0.15642899 -0.179969 -0.30663899
-0.156592 -0.171376 -0.30663899
-0.15672 -0.162782 -0.30663899
-0.156883 -0.15418801 -0.30663899
-0.15696999 -0.145594 -0.30663899
-0.156969 -0.13700099 -0.30663899
-0.156892 -0.128407 -0.30663899
-0.156927 -0.119813 -0.30663899
-0.15699001 -0.111219 -0.30663899
-0.156701 -0.102626 -0.30663899
-0.15588801 -0.094031997 -0.30663899
-0.154953 -0.085438199 -0.30663899
-0.154833 -0.084152102 -0.30663899
-0.154256 -0.076844402 -0.30663899
-0.15381899 -0.068250701 -0.30663899
-0.153568 -0.059657 -0.30663899
-0.153358 -0.051063199 -0.30663899
-0.153146 -0.042469501 -0.30663899
-0.153043 -0.0338757 -0.30663899
-0.153148 -0.025281999 -0.30663899
-0.153221 -0.0166882 -0.30663899
-0.153258 -0.0080944598 -0.30663899
-0.15327901 0.00049927999 -0.30663899
-0.15351599 0.0090930499 -0.30663899
-0.15383101 0.017686799 -0.30663899
-0.153851 0.026280601 -0.30663899
-0.15376499 0.034874301 -0.30663899
-0.153547 0.043467999 -0.30663899
-0.15316699 0.0520618 -0.30663899
-0.15239701 0.060655601 -0.30663899
-0.151513 0.069249302 -0.30663899
-0.150718 0.077843003 -0.30663899
0.0084482403 -0.43402401 -0.30663899
0.017042 -0.43435001 -0.30663899
0.025635799 -0.434138 -0.30663899
0.034229498 -0.433305 -0.30663899
0.0428233 -0.43176901 -0.30663899
0.051417001 -0.42941099 -0.30663899
0.0520816 -0.42918801 -0.30663899
0.060010701 -0.425814 -0.30663899
0.067718498 -0.42059401 -0.30663899
0.068604499 -0.41948101 -0.30663899
0.069903798 -0.41200101 -0.30663899
0.070170902 -0.40340701 -0.30663899
0.074427098 -0.394813 -0.30663899
0.077198297 -0.39150101 -0.30663899
0.082361199 -0.38621899 -0.30663899
0.085791998 -0.38264501 -0.30663899
0.089920498 -0.377626 -0.30663899
0.094385698 -0.371512 -0.30663899
0.0959858 -0.369032 -0.30663899
0.101404 -0.36043799 -0.30663899
0.102979 -0.35789201 -0.30663899
0.106873 -0.35184401 -0.30663899
0.111573 -0.344046 -0.30663899
0.111999 -0.34325099 -0.30663899
0.116946 -0.33465701 -0.30663899
0.120167 -0.32890201 -0.30663899
0.121686 -0.32606301 -0.30663899
0.125889 -0.317469 -0.30663899
0.12876099 -0.30997801 -0.30663899
0.129135 -0.30887601 -0.30663899
0.13201199 -0.300282 -0.30663899
0.135425 -0.291688 -0.30663899
0.137354 -0.28712901 -0.30663899
0.138772 -0.28309399 -0.30663899
0.14111499 -0.274501 -0.30663899
0.14232001 -0.26590699 -0.30663899
0.14253899 -0.25731301 -0.30663899
0.14203 -0.24871901 -0.30663899
0.141406 -0.240126 -0.30663899
0.141076 -0.23153199 -0.30663899
0.140403 -0.222938 -0.30663899
0.13925999 -0.21434399 -0.30663899
0.138607 -0.205751 -0.30663899
0.13870101 -0.197157 -0.30663899
0.139292 -0.188563 -0.30663899
0.140389 -0.179969 -0.30663899
0.14161099 -0.171376 -0.30663899
0.142993 -0.162782 -0.30663899
0.144618 -0.15418801 -0.30663899
0.14594799 -0.147035 -0.30663899
0.146221 -0.145594 -0.30663899
0.14778 -0.13700099 -0.30663899
0.14939199 -0.128407 -0.30663899
0.150675 -0.119813 -0.30663899
0.151585 -0.111219 -0.30663899
0.152225 -0.102626 -0.30663899
0.152435 -0.094031997 -0.30663899
0.15252399 -0.085438199 -0.30663899
0.152426 -0.076844402 -0.30663899
0.152347 -0.068250701 -0.30663899
0.152283 -0.059657 -0.30663899
0.15184601 -0.051063199 -0.30663899
0.15131401 -0.042469501 -0.30663899
0.150883 -0.0338757 -0.30663899
0.150235 -0.025281999 -0.30663899
0.149523 -0.0166882 -0.30663899
0.148801 -0.0080944598 -0.30663899
0.147975 0.00049927999 -0.30663899
0.147403 0.0090930499 -0.30663899
0.14724 0.017686799 -0.30663899
0.147265 0.026280601 -0.30663899
0.147521 0.034874301 -0.30663899
0.148112 0.043467999 -0.30663899
0.14854001 0.0520618 -0.30663899
0.14860301 0.060655601 -0.30663899
0.14831001 0.069249302 -0.30663899
0.14774901 0.077843003 -0.30663899
-0.150079 0.086436801 -0.30663899
-0.14964899 0.095030501 -0.30663899
-0.148829 0.103624 -0.30663899
-0.147671 0.112218 -0.30663899
-0.146561 0.120812 -0.30663899
-0.146239 0.123587 -0.30663899
-0.14572901 0.12940601 -0.30663899
-0.14493901 0.137999 -0.30663899
-0.143647 0.146593 -0.30663899
-0.141745 0.155187 -0.30663899
-0.138936 0.163781 -0.30663899
-0.13764501 0.16691799 -0.30663899
-0.134986 0.172374 -0.30663899
-0.12957101 0.180968 -0.30663899
-0.129052 0.181703 -0.30663899
-0.122497 0.18956199 -0.30663899
-0.120458 0.191645 -0.30663899
-0.112884 0.198156 -0.30663899
-0.111864 0.198908 -0.30663899
-0.103271 0.205051 -0.30663899
-0.100689 0.20674901 -0.30663899
-0.094676703 0.21049801 -0.30663899
-0.086083002 0.21509001 -0.30663899
-0.085520402 0.215343 -0.30663899
-0.077489302 0.218584 -0.30663899
-0.068895496 0.221406 -0.30663899
-0.060301799 0.22368699 -0.30663899
-0.059207201 0.223937 -0.30663899
-0.051708002 0.225785 -0.30663899
-0.0431142 0.227964 -0.30663899
-0.034520499 0.229862 -0.30663899
-0.0259268 0.231253 -0.30663899
-0.017333001 0.232008 -0.30663899
-0.0087392302 0.232154 -0.30663899
-0.00014549 0.231802 -0.30663899
0.137354 0.180547 -0.30663899
0.137159 0.180968 -0.30663899
0.102979 0.214826 -0.30663899
0.102056 0.215343 -0.30663899
0.132093 0.18956199 -0.30663899
0.12876099 0.194048 -0.30663899
0.12511501 0.198156 -0.30663899
0.120167 0.202943 -0.30663899
0.11541 0.20674901 -0.30663899
0.111573 0.20944899 -0.30663899
0.14739101 0.086436801 -0.30663899
0.147259 0.095030501 -0.30663899
0.147285 0.103624 -0.30663899
0.14736401 0.112218 -0.30663899
0.14718901 0.120812 -0.30663899
0.146686 0.12940601 -0.30663899
0.146229 0.137999 -0.30663899
0.14594799 0.143755 -0.30663899
0.145751 0.146593 -0.30663899
0.14497501 0.155187 -0.30663899
0.14342999 0.163781 -0.30663899
0.14070199 0.172374 -0.30663899
0.0084482403 0.23099899 -0.30663899
0.017042 0.230243 -0.30663899
0.025635799 0.229903 -0.30663899
0.034229498 0.22979499 -0.30663899
0.0428233 0.229757 -0.30663899
0.051417001 0.229532 -0.30663899
0.060010701 0.228824 -0.30663899
0.068604499 0.227504 -0.30663899
0.085791998 0.22301599 -0.30663899
0.082958803 0.223937 -0.30663899
0.077198297 0.225583 -0.30663899
0.094385698 0.21941701 -0.30663899
-0.068895496 -0.41200101 -0.307356
-0.068895496 -0.40340701 -0.307749
-0.060301799 -0.42059401 -0.307989
-0.051708002 -0.42059401 -0.30942899
-0.034520499 -0.42918801 -0.30697301
-0.0431142 -0.42059401 -0.310496
-0.034520499 -0.42059401 -0.311961
-0.060301799 -0.41200101 -0.309003
-0.051708002 -0.41200101 -0.31049401
-0.060301799 -0.40340701 -0.30920699
-0.051708002 -0.40340701 -0.31061599
-0.0431142 -0.41200101 -0.31184399
-0.034520499 -0.41200101 -0.313281
-0.0431142 -0.40340701 -0.31224799
-0.034520499 -0.40340701 -0.31367001
-0.0259268 -0.42918801 -0.30845299
-0.017333001 -0.42918801 -0.30924201
-0.0259268 -0.42059401 -0.31358099
-0.017333001 -0.42059401 -0.31407401
-0.0087392302 -0.42918801 -0.310112
-0.00014549 -0.42918801 -0.31124899
-0.0087392302 -0.42059401 -0.31486899
-0.0259268 -0.41200101 -0.31447101
-0.017333001 -0.41200101 -0.31507501
-0.0259268 -0.40340701 -0.314576
-0.017333001 -0.40340701 -0.31521901
-0.103271 -0.369032 -0.30758899
-0.086083002 -0.38621899 -0.307686
-0.077489302 -0.394813 -0.307657
-0.068895496 -0.394813 -0.30923599
-0.077489302 -0.38621899 -0.30968899
-0.068895496 -0.38621899 -0.31151199
-0.094676703 -0.377626 -0.30762801
-0.086083002 -0.377626 -0.309764
-0.094676703 -0.369032 -0.30983701
-0.086083002 -0.369032 -0.31219301
-0.077489302 -0.377626 -0.31209001
-0.068895496 -0.377626 -0.314044
-0.077489302 -0.369032 -0.31460601
-0.120458 -0.35184401 -0.30704001
-0.111864 -0.36043799 -0.30738199
-0.103271 -0.36043799 -0.309854
-0.111864 -0.35184401 -0.30984399
-0.103271 -0.35184401 -0.31246099
-0.120458 -0.34325099 -0.30958101
-0.129052 -0.33465701 -0.30877501
-0.120458 -0.33465701 -0.31207401
-0.111864 -0.34325099 -0.31249201
-0.103271 -0.34325099 -0.31507799
-0.111864 -0.33465701 -0.314906
-0.094676703 -0.36043799 -0.312323
-0.086083002 -0.36043799 -0.31478399
-0.094676703 -0.35184401 -0.31491199
-0.060301799 -0.394813 -0.31060499
-0.051708002 -0.394813 -0.312013
-0.060301799 -0.38621899 -0.31291801
-0.051708002 -0.38621899 -0.31410801
-0.0431142 -0.394813 -0.313456
-0.034520499 -0.394813 -0.31467301
-0.13764501 -0.32606301 -0.307504
-0.13764501 -0.317469 -0.30956399
-0.146239 -0.30887601 -0.307877
-0.13764501 -0.30887601 -0.31140301
-0.146239 -0.300282 -0.30940399
-0.13764501 -0.300282 -0.312848
-0.154833 -0.291688 -0.306766
-0.154833 -0.28309399 -0.307423
-0.146239 -0.291688 -0.31054199
-0.13764501 -0.291688 -0.31389701
-0.146239 -0.28309399 -0.31127399
-0.13764501 -0.28309399 -0.314587
-0.154833 -0.274501 -0.30774301
-0.154833 -0.26590699 -0.30783799
-0.146239 -0.274501 -0.31163499
-0.13764501 -0.274501 -0.314899
-0.146239 -0.26590699 -0.31169099
-0.13764501 -0.26590699 -0.31490999
-0.154833 -0.25731301 -0.30780199
-0.154833 -0.24871901 -0.307603
-0.146239 -0.25731301 -0.311535
-0.13764501 -0.25731301 -0.31483001
-0.146239 -0.24871901 -0.311342
-0.13764501 -0.24871901 -0.31479701
-0.154833 -0.240126 -0.30735001
-0.154833 -0.23153199 -0.30719301
-0.146239 -0.240126 -0.31115001
-0.13764501 -0.240126 -0.31469801
-0.146239 -0.23153199 -0.311023
-0.13764501 -0.23153199 -0.31457201
-0.154833 -0.222938 -0.307212
-0.154833 -0.21434399 -0.30733699
-0.146239 -0.222938 -0.31108299
-0.13764501 -0.222938 -0.314542
-0.146239 -0.21434399 -0.311214
-0.13764501 -0.21434399 -0.314583
-0.154833 -0.205751 -0.307383
-0.154833 -0.197157 -0.307374
-0.146239 -0.205751 -0.311308
-0.13764501 -0.205751 -0.314688
-0.146239 -0.197157 -0.31134599
-0.13764501 -0.197157 -0.314789
-0.129052 -0.32606301 -0.31100601
-0.120458 -0.32606301 -0.31420499
-0.129052 -0.317469 -0.312994
-0.129052 -0.30887601 -0.314659
-0.154833 -0.188563 -0.307374
-0.154833 -0.179969 -0.30739999
-0.146239 -0.188563 -0.31138
-0.13764501 -0.188563 -0.31487301
-0.146239 -0.179969 -0.311445
-0.13764501 -0.179969 -0.315
-0.154833 -0.171376 -0.307475
-0.154833 -0.162782 -0.30756399
-0.146239 -0.171376 -0.31155199
-0.13764501 -0.171376 -0.315175
-0.146239 -0.162782 -0.31170201
-0.154833 -0.15418801 -0.30766299
-0.154833 -0.145594 -0.307724
-0.146239 -0.15418801 -0.31186101
-0.146239 -0.145594 -0.311979
-0.154833 -0.13700099 -0.30772299
-0.154833 -0.128407 -0.30770001
-0.146239 -0.13700099 -0.311968
-0.146239 -0.128407 -0.31198299
-0.154833 -0.119813 -0.307751
-0.154833 -0.111219 -0.307778
-0.146239 -0.119813 -0.31206
-0.146239 -0.111219 -0.312078
-0.154833 -0.102626 -0.30762401
-0.154833 -0.094031997 -0.307201
-0.146239 -0.102626 -0.31202
-0.146239 -0.094031997 -0.31163201
-0.154833 -0.085438199 -0.306701
-0.146239 -0.085438199 -0.311014
-0.13764501 -0.085438199 -0.314969
-0.146239 -0.076844402 -0.31058499
-0.13764501 -0.076844402 -0.31467
-0.146239 -0.068250701 -0.31037399
-0.13764501 -0.068250701 -0.314578
-0.146239 -0.059657 -0.31031501
-0.13764501 -0.059657 -0.314601
-0.146239 -0.051063199 -0.31027099
-0.13764501 -0.051063199 -0.31463501
-0.146239 -0.042469501 -0.310195
-0.13764501 -0.042469501 -0.31465101
-0.146239 -0.0338757 -0.31016901
-0.13764501 -0.0338757 -0.314619
-0.146239 -0.025281999 -0.310229
-0.13764501 -0.025281999 -0.31463999
-0.146239 -0.0166882 -0.31030199
-0.13764501 -0.0166882 -0.31469101
-0.146239 -0.0080944598 -0.31037399
-0.13764501 -0.0080944598 -0.31473601
-0.146239 0.00049927999 -0.31044701
-0.13764501 0.00049927999 -0.314821
-0.146239 0.0090930499 -0.310534
-0.13764501 0.0090930499 -0.314877
-0.146239 0.017686799 -0.31062201
-0.13764501 0.017686799 -0.31488001
-0.146239 0.026280601 -0.310583
-0.13764501 0.026280601 -0.31483799
-0.146239 0.034874301 -0.31053001
-0.13764501 0.034874301 -0.31480101
-0.146239 0.043467999 -0.310413
-0.13764501 0.043467999 -0.31470001
-0.146239 0.0520618 -0.310204
-0.13764501 0.0520618 -0.314448
-0.146239 0.060655601 -0.309778
-0.13764501 0.060655601 -0.31406701
-0.146239 0.069249302 -0.30928999
-0.13764501 0.069249302 -0.31362599
-0.146239 0.077843003 -0.308907
-0.13764501 0.077843003 -0.313252
0.0084482403 -0.42918801 -0.31215701
0.017042 -0.42918801 -0.312511
0.025635799 -0.42918801 -0.31211701
0.034229498 -0.42918801 -0.311055
0.0428233 -0.42918801 -0.309196
0.051417001 -0.42918801 -0.30682901
0.0428233 -0.42059401 -0.31402999
0.051417001 -0.42059401 -0.31174701
0.060010701 -0.42059401 -0.30919299
0.0428233 -0.41200101 -0.31445301
0.051417001 -0.41200101 -0.31233999
0.0428233 -0.40340701 -0.31415999
0.051417001 -0.40340701 -0.31207299
0.060010701 -0.41200101 -0.309957
0.068604499 -0.41200101 -0.307087
0.060010701 -0.40340701 -0.30964699
0.068604499 -0.40340701 -0.30708501
0.0428233 -0.394813 -0.31514299
0.051417001 -0.394813 -0.31301799
0.051417001 -0.38621899 -0.31471801
0.060010701 -0.394813 -0.310516
0.068604499 -0.394813 -0.30814901
0.060010701 -0.38621899 -0.31231701
0.068604499 -0.38621899 -0.30996099
0.060010701 -0.377626 -0.314417
0.068604499 -0.377626 -0.31202301
0.068604499 -0.369032 -0.31394199
0.077198297 -0.38621899 -0.30782899
0.077198297 -0.377626 -0.30977899
0.085791998 -0.377626 -0.30764699
0.077198297 -0.369032 -0.31148699
0.085791998 -0.369032 -0.309277
0.094385698 -0.369032 -0.30706799
0.077198297 -0.36043799 -0.313164
0.085791998 -0.36043799 -0.310877
0.077198297 -0.35184401 -0.31483901
0.085791998 -0.35184401 -0.312518
0.094385698 -0.36043799 -0.308651
0.094385698 -0.35184401 -0.310316
0.102979 -0.35184401 -0.30781701
0.085791998 -0.34325099 -0.31430501
0.094385698 -0.34325099 -0.31200001
0.102979 -0.34325099 -0.30945501
0.094385698 -0.33465701 -0.31387001
0.102979 -0.33465701 -0.311138
0.111573 -0.34325099 -0.306775
0.111573 -0.33465701 -0.30836001
0.102979 -0.32606301 -0.31321299
0.111573 -0.32606301 -0.310258
0.120167 -0.32606301 -0.30718601
0.111573 -0.317469 -0.312493
0.120167 -0.317469 -0.308999
0.111573 -0.30887601 -0.31456599
0.120167 -0.30887601 -0.310902
0.120167 -0.300282 -0.31261101
0.12876099 -0.30887601 -0.30681399
0.12876099 -0.300282 -0.308218
0.120167 -0.291688 -0.31400901
0.120167 -0.28309399 -0.31514901
0.12876099 -0.291688 -0.30980599
0.12876099 -0.28309399 -0.31136599
0.137354 -0.28309399 -0.307291
0.12876099 -0.274501 -0.31244999
0.137354 -0.274501 -0.30840299
0.12876099 -0.26590699 -0.31295699
0.137354 -0.26590699 -0.30896801
0.12876099 -0.25731301 -0.31305501
0.137354 -0.25731301 -0.30902201
0.12876099 -0.24871901 -0.31297401
0.137354 -0.24871901 -0.30881
0.12876099 -0.240126 -0.312823
0.137354 -0.240126 -0.30856401
0.12876099 -0.23153199 -0.312635
0.137354 -0.23153199 -0.30838501
0.12876099 -0.222938 -0.31227699
0.137354 -0.222938 -0.30804101
0.12876099 -0.21434399 -0.311629
0.137354 -0.21434399 -0.30752301
0.120167 -0.205751 -0.31487501
0.120167 -0.197157 -0.31466001
0.12876099 -0.205751 -0.31106699
0.137354 -0.205751 -0.30719399
0.12876099 -0.197157 -0.31092101
0.137354 -0.197157 -0.30721
0.120167 -0.188563 -0.314845
0.12876099 -0.188563 -0.311288
0.137354 -0.188563 -0.30750099
0.12876099 -0.179969 -0.311914
0.137354 -0.179969 -0.30799699
0.12876099 -0.171376 -0.31255499
0.137354 -0.171376 -0.308568
0.12876099 -0.162782 -0.31319299
0.137354 -0.162782 -0.30923501
0.12876099 -0.15418801 -0.31379801
0.137354 -0.15418801 -0.31000301
0.12876099 -0.145594 -0.31445101
0.137354 -0.145594 -0.31084999
0.12876099 -0.13700099 -0.315088
0.137354 -0.13700099 -0.31167999
0.137354 -0.128407 -0.31231001
0.137354 -0.119813 -0.31276399
0.137354 -0.111219 -0.313095
0.137354 -0.102626 -0.313207
0.137354 -0.094031997 -0.313232
0.137354 -0.085438199 -0.313265
0.137354 -0.076844402 -0.31325701
0.137354 -0.068250701 -0.31322601
0.137354 -0.059657 -0.31317499
0.14594799 -0.145594 -0.30676901
0.14594799 -0.13700099 -0.30751699
0.14594799 -0.128407 -0.30821499
0.14594799 -0.119813 -0.30879
0.14594799 -0.111219 -0.30917999
0.14594799 -0.102626 -0.30936801
0.14594799 -0.094031997 -0.309457
0.14594799 -0.085438199 -0.30952299
0.14594799 -0.076844402 -0.30950499
0.14594799 -0.068250701 -0.309452
0.14594799 -0.059657 -0.30941999
0.137354 -0.051063199 -0.31306201
0.137354 -0.042469501 -0.31285501
0.137354 -0.0338757 -0.31263399
0.137354 -0.025281999 -0.31246799
0.137354 -0.0166882 -0.31234801
0.137354 -0.0080944598 -0.31218499
0.137354 0.00049927999 -0.31191701
0.137354 0.0090930499 -0.311629
0.137354 0.017686799 -0.31147099
0.137354 0.026280601 -0.31150299
0.137354 0.034874301 -0.31172699
0.137354 0.043467999 -0.31211001
0.137354 0.0520618 -0.31256399
0.137354 0.060655601 -0.312866
0.137354 0.069249302 -0.31291699
0.137354 0.077843003 -0.31279799
0.14594799 -0.051063199 -0.30928299
0.14594799 -0.042469501 -0.30904001
0.14594799 -0.0338757 -0.308824
0.14594799 -0.025281999 -0.30857801
0.14594799 -0.0166882 -0.308285
0.14594799 -0.0080944598 -0.307951
0.14594799 0.00049927999 -0.30759501
0.14594799 0.0090930499 -0.30733001
0.14594799 0.017686799 -0.30722901
0.14594799 0.026280601 -0.30724099
0.14594799 0.034874301 -0.307372
0.14594799 0.043467999 -0.30764899
0.14594799 0.0520618 -0.307924
0.14594799 0.060655601 -0.30803201
0.14594799 0.069249302 -0.307901
0.14594799 0.077843003 -0.30765
-0.146239 0.086436801 -0.30860099
-0.13764501 0.086436801 -0.312994
-0.146239 0.095030501 -0.30836099
-0.13764501 0.095030501 -0.312709
-0.146239 0.103624 -0.30790299
-0.13764501 0.103624 -0.312282
-0.146239 0.112218 -0.30732501
-0.13764501 0.112218 -0.31171301
-0.146239 0.120812 -0.306797
-0.13764501 0.120812 -0.31115299
-0.13764501 0.12940601 -0.310756
-0.13764501 0.137999 -0.310408
-0.13764501 0.146593 -0.30973399
-0.13764501 0.155187 -0.3087
-0.13764501 0.163781 -0.30729499
-0.129052 0.12940601 -0.31516299
-0.129052 0.137999 -0.31479499
-0.129052 0.146593 -0.31418201
-0.129052 0.155187 -0.313243
-0.129052 0.163781 -0.311786
-0.129052 0.172374 -0.309634
-0.120458 0.172374 -0.31376499
