# .PCD v0.7 - Point Cloud Data file format
VERSION 0.7
FIELDS x y z
SIZE 4 4 4
TYPE F F F
COUNT 1 1 1
WIDTH 1524
HEIGHT 1
VIEWPOINT 0 0 0 1 0 0 0
POINTS 1524
DATA ascii
0.29204199 0.203743 0.114455
0.28174001 0.215343 0.114455
-0.29233301 -0.38621899 0.109941
-0.27514601 -0.40340701 0.103605
-0.30952001 -0.35184401 0.097394399
-0.30952001 -0.33465701 0.108761
-0.120458 -0.23153199 0.102057
-0.103271 -0.23153199 0.099434301
-0.13764501 -0.21434399 0.101041
-0.120458 -0.21434399 0.11423
-0.13764501 -0.197157 0.107038
-0.086083002 -0.197157 0.101688
-0.13764501 -0.179969 0.11149
-0.13764501 -0.162782 0.112761
-0.086083002 -0.179969 0.103807
-0.086083002 -0.162782 0.109352
-0.13764501 -0.145594 0.10535
-0.120458 -0.128407 0.113962
-0.103271 -0.128407 0.111594
0.017042 -0.33465701 0.113919
0.034229498 -0.33465701 0.106854
0.051417001 -0.35184401 0.107952
0.24048001 -0.43778199 0.098221697
0.25766701 -0.43778199 0.108773
0.27485499 -0.42059401 0.105225
0.29204199 -0.40340701 0.104109
0.30922899 -0.35184401 0.108222
-0.30952001 0.198156 0.101082
-0.25795799 0.249718 0.113125
-0.206396 0.26690599 0.100447
-0.068895496 0.28409299 0.104596
0.051417001 0.28409299 0.110648
0.068604499 0.28409299 0.102923
-0.00014549 0.30128101 0.099229798
0.017042 0.30128101 0.097897798
0.22329199 0.249718 0.110123
0.30922899 0.180968 0.104634
-0.113507 -0.12609901 0.108167
-0.27514601 -0.386015 0.131642
-0.28808999 -0.369032 0.131642
-0.29233301 -0.35466099 0.131642
-0.293143 -0.35184401 0.131642
-0.29743999 -0.33465701 0.131642
-0.30151799 -0.317469 0.131642
-0.30476099 -0.300282 0.131642
-0.30644301 -0.28309399 0.131642
-0.30700901 -0.26590699 0.131642
-0.30704501 -0.24871901 0.131642
-0.306797 -0.23153199 0.131642
-0.30656001 -0.21434399 0.131642
-0.30633801 -0.197157 0.131642
-0.25795799 -0.398909 0.131642
-0.27131101 -0.38621899 0.131642
-0.25341001 -0.40340701 0.131642
-0.30623099 -0.179969 0.131642
-0.30652899 -0.162782 0.131642
-0.30697599 -0.145594 0.131642
-0.30717599 -0.128407 0.131642
-0.30718699 -0.111219 0.131642
-0.30746099 -0.094031997 0.131642
-0.30808899 -0.076844402 0.131642
-0.308496 -0.059657 0.131642
-0.308815 -0.042469501 0.131642
-0.309407 -0.025281999 0.131642
-0.30952001 -0.022289099 0.131642
-0.30997401 -0.0080944598 0.131642
-0.31021801 0.0090930499 0.131642
-0.31020701 0.026280601 0.131642
-0.310186 0.043467999 0.131642
-0.309966 0.060655601 0.131642
-0.309677 0.077843003 0.131642
-0.103271 -0.19656301 0.131642
-0.117762 -0.179969 0.131642
-0.120458 -0.170353 0.131642
-0.120994 -0.162782 0.131642
-0.086083002 -0.194601 0.131642
-0.069939099 -0.179969 0.131642
-0.068895496 -0.178361 0.131642
-0.120458 -0.157159 0.131642
-0.115207 -0.145594 0.131642
-0.103271 -0.13516 0.131642
-0.086083002 -0.131476 0.131642
-0.068895496 -0.138285 0.131642
-0.0624776 -0.162782 0.131642
-0.060634501 -0.145594 0.131642
0.085791998 -0.40436301 0.131642
0.0840386 -0.40340701 0.131642
0.102979 -0.411064 0.131642
0.120167 -0.41461501 0.131642
0.137354 -0.41638499 0.131642
0.068604499 -0.39330801 0.131642
0.058826499 -0.38621899 0.131642
0.051417001 -0.379895 0.131642
0.0399644 -0.369032 0.131642
0.017042 -0.35216701 0.131642
0.0154111 -0.35184401 0.131642
0.034229498 -0.36278701 0.131642
-0.00014549 -0.35039699 0.131642
0.25225601 -0.42059401 0.131642
0.24048001 -0.42807201 0.131642
0.254031 -0.40340701 0.131642
0.27485499 -0.412285 0.131642
0.27112201 -0.40340701 0.131642
0.25766701 -0.39976999 0.131642
0.27876201 -0.40340701 0.131642
0.286313 -0.38621899 0.131642
0.29204199 -0.37240601 0.131642
0.29347101 -0.369032 0.131642
0.299375 -0.35184401 0.131642
0.303395 -0.33465701 0.131642
0.30526599 -0.317469 0.131642
0.30577299 -0.300282 0.131642
0.30610999 -0.28309399 0.131642
0.306499 -0.26590699 0.131642
0.30646199 -0.24871901 0.131642
0.30563 -0.23153199 0.131642
0.30429399 -0.21434399 0.131642
0.30353999 -0.197157 0.131642
0.30400899 -0.179969 0.131642
0.30566001 -0.162782 0.131642
0.30796599 -0.145594 0.131642
0.30922899 -0.135335 0.131642
0.30993101 -0.128407 0.131642
0.31121501 -0.111219 0.131642
0.311867 -0.094031997 0.131642
0.31150499 -0.076844402 0.131642
0.31030601 -0.059657 0.131642
0.309576 -0.042469501 0.131642
0.309863 -0.025281999 0.131642
0.31063801 -0.0080944598 0.131642
0.31149599 0.0090930499 0.131642
0.31218299 0.026280601 0.131642
0.31252 0.043467999 0.131642
-0.30952001 0.089413702 0.131642
-0.30939901 0.095030501 0.131642
-0.309396 0.112218 0.131642
-0.30952001 0.119145 0.131642
-0.309542 0.12940601 0.131642
-0.30952001 0.131671 0.131642
-0.30911699 0.146593 0.131642
-0.30701301 0.163781 0.131642
-0.302573 0.180968 0.131642
-0.29686499 0.198156 0.131642
-0.29233301 0.208592 0.131642
-0.28832 0.215343 0.131642
-0.27514601 0.23160701 0.131642
-0.274205 0.232531 0.131642
-0.25795799 0.24422701 0.131642
-0.246857 0.249718 0.131642
-0.24077 0.25209001 0.131642
-0.223583 0.25747299 0.131642
-0.206396 0.26215601 0.131642
-0.189208 0.26579899 0.131642
-0.18191899 0.26690599 0.131642
-0.17202 0.26836199 0.131642
-0.154833 0.27067199 0.131642
-0.13764501 0.272091 0.131642
-0.120458 0.27295399 0.131642
-0.103271 0.27379 0.131642
-0.086083002 0.274793 0.131642
-0.068895496 0.275709 0.131642
0.017042 0.27894899 0.131642
-0.00014549 0.27922201 0.131642
0.034229498 0.27840701 0.131642
0.051417001 0.277639 0.131642
0.068604499 0.276667 0.131642
0.085791998 0.27543899 0.131642
0.102979 0.273826 0.131642
0.120167 0.271781 0.131642
0.137354 0.26944 0.131642
0.154542 0.26603401 0.131642
0.150727 0.26690599 0.131642
0.17173 0.261859 0.131642
0.188917 0.25738299 0.131642
0.20610499 0.25237 0.131642
0.22329199 0.24582 0.131642
0.21367 0.249718 0.131642
0.24048001 0.237866 0.131642
0.25766701 0.22865599 0.131642
0.250889 0.232531 0.131642
0.27485499 0.215966 0.131642
0.312491 0.077843003 0.131642
0.31204501 0.095030501 0.131642
0.31134999 0.112218 0.131642
0.30922899 0.144701 0.131642
0.30904099 0.146593 0.131642
0.310431 0.12940601 0.131642
0.30581301 0.163781 0.131642
0.29964599 0.180968 0.131642
0.29204199 0.19512901 0.131642
0.29003799 0.198156 0.131642
0.27552801 0.215343 0.131642
0.22329199 -0.43311101 0.131642
0.20610499 -0.43635401 0.131642
0.31262299 0.060655601 0.131642
-0.051708002 0.27672401 0.131642
-0.034520499 0.277904 0.131642
-0.017333001 0.27890101 0.131642
-0.27514601 -0.38621899 0.13070101
-0.29233301 -0.369032 0.124074
-0.30952001 -0.317469 0.116434
-0.30952001 -0.300282 0.122164
-0.30952001 -0.28309399 0.12536401
-0.30952001 -0.26590699 0.126269
-0.30952001 -0.24871901 0.12620801
-0.30952001 -0.23153199 0.125624
-0.30952001 -0.21434399 0.125043
-0.30952001 -0.197157 0.124784
-0.25795799 -0.40340701 0.122878
-0.103271 -0.21434399 0.1168
-0.120458 -0.197157 0.123543
-0.103271 -0.197157 0.13130701
-0.086083002 -0.197157 0.129116
-0.30952001 -0.179969 0.125126
-0.30952001 -0.162782 0.12600601
-0.30952001 -0.145594 0.126698
-0.30952001 -0.128407 0.126996
-0.30952001 -0.111219 0.12696201
-0.30952001 -0.094031997 0.12733901
-0.30952001 -0.076844402 0.128512
-0.30952001 -0.059657 0.129292
-0.30952001 -0.042469501 0.13001101
-0.30952001 -0.025281999 0.13138901
-0.120458 -0.179969 0.129803
-0.068895496 -0.162782 0.118867
-0.120458 -0.145594 0.127278
-0.103271 -0.128407 0.130594
-0.086083002 -0.145594 0.115759
-0.068895496 -0.145594 0.125835
0.085791998 -0.40340701 0.128855
0.068604499 -0.38621899 0.119246
0.051417001 -0.369032 0.121585
0.017042 -0.35184401 0.131217
0.034229498 -0.35184401 0.123937
-0.00014549 -0.33465701 0.115103
0.25766701 -0.42059401 0.12507001
0.25766701 -0.40340701 0.12828299
0.29204199 -0.38621899 0.118911
0.30922899 -0.33465701 0.118691
0.30922899 -0.317469 0.123564
0.30922899 -0.300282 0.125075
0.30922899 -0.28309399 0.125691
0.30922899 -0.26590699 0.12625
0.30922899 -0.24871901 0.126056
0.30922899 -0.23153199 0.124031
0.30922899 -0.21434399 0.120766
0.30922899 -0.197157 0.118816
0.30922899 -0.179969 0.119755
0.30922899 -0.162782 0.123414
0.30922899 -0.145594 0.128676
-0.30952001 0.095030501 0.131376
-0.30952001 0.112218 0.131382
-0.30952001 0.146593 0.130817
-0.30952001 0.163781 0.12661301
-0.30952001 0.180968 0.117763
-0.29233301 0.215343 0.12338
-0.27514601 0.232531 0.129673
-0.189208 0.26690599 0.123533
-0.00014549 0.28409299 0.119529
0.017042 0.28409299 0.118563
0.034229498 0.28409299 0.115942
0.154542 0.26690599 0.125654
0.25766701 0.232531 0.1149
0.30922899 0.146593 0.131229
0.30922899 0.163781 0.123576
0.29204199 0.198156 0.126735
-0.24077 -0.41318199 0.131642
-0.206396 -0.416567 0.131642
-0.17202 -0.40765101 0.131642
-0.13764501 -0.40546799 0.131642
-0.103271 -0.40929401 0.131642
-0.081165798 -0.40340701 0.131642
-0.068895496 -0.39711499 0.131642
-0.038566999 -0.369032 0.131642
-0.034520499 -0.36541799 0.131642
0.17173 -0.42550501 0.131642
-0.13764501 -0.40340701 0.119039
-0.103271 -0.40340701 0.121168
-0.068895496 -0.369032 0.105212
-0.034520499 -0.33465701 0.098367497
0.20610499 -0.43778199 0.120332
-0.034520499 0.28409299 0.116442
-0.25804701 -0.40872899 0.114108
-0.1392 -0.208142 0.100654
-0.14069299 -0.179969 0.105165
-0.1399 -0.152042 0.103162
0.15360101 -0.41957599 0.109544
0.252316 -0.43787101 0.100382
0.22615699 -0.43423 0.121323
0.016607899 -0.33010101 0.107478
0.31834799 0.060655601 0.11691
-0.054572601 0.27978 0.121737
-0.017333001 0.28084299 0.12617999
-0.051708002 0.29001099 0.102568
-0.0116038 0.29339799 0.107365
-0.27514601 -0.37398899 0.14883
-0.27726799 -0.369032 0.14883
-0.28259099 -0.35184401 0.14883
-0.28742 -0.33465701 0.14883
-0.291538 -0.317469 0.14883
-0.29233301 -0.313737 0.14883
-0.29447499 -0.300282 0.14883
-0.29629901 -0.28309399 0.14883
-0.297306 -0.26590699 0.14883
-0.297593 -0.24871901 0.14883
-0.29760799 -0.23153199 0.14883
-0.29752401 -0.21434399 0.14883
-0.297474 -0.197157 0.14883
-0.24137799 -0.40340701 0.14883
-0.25146499 -0.38621899 0.14883
-0.25795799 -0.384859 0.14883
-0.297315 -0.179969 0.14883
-0.29734799 -0.162782 0.14883
-0.29793701 -0.145594 0.14883
-0.29824099 -0.128407 0.14883
-0.29826599 -0.111219 0.14883
-0.29873201 -0.094031997 0.14883
-0.299723 -0.076844402 0.14883
-0.30055499 -0.059657 0.14883
-0.30080199 -0.042469501 0.14883
-0.301184 -0.025281999 0.14883
-0.30159599 -0.0080944598 0.14883
-0.30147901 0.0090930499 0.14883
-0.30153599 0.026280601 0.14883
-0.30192301 0.043467999 0.14883
-0.301844 0.060655601 0.14883
-0.30140001 0.077843003 0.14883
0.068604499 -0.40418699 0.14883
0.067084797 -0.40340701 0.14883
0.085791998 -0.409949 0.14883
0.102979 -0.41325101 0.14883
0.120167 -0.41578299 0.14883
0.137354 -0.41810599 0.14883
0.017042 -0.373961 0.14883
0.0127432 -0.369032 0.14883
0.034229498 -0.38484499 0.14883
0.051417001 -0.39451501 0.14883
0.036555499 -0.38621899 0.14883
-0.00014549 -0.36392501 0.14883
0.22329199 -0.429564 0.14883
0.20610499 -0.43398499 0.14883
0.24048001 -0.42345899 0.14883
0.24339201 -0.42059401 0.14883
0.246389 -0.40340701 0.14883
0.25766701 -0.39839599 0.14883
0.27485499 -0.39266801 0.14883
0.278007 -0.38621899 0.14883
0.284776 -0.369032 0.14883
0.29106301 -0.35184401 0.14883
0.29204199 -0.34851 0.14883
0.294781 -0.33465701 0.14883
0.29630601 -0.317469 0.14883
0.29674801 -0.300282 0.14883
0.297203 -0.28309399 0.14883
0.29787701 -0.26590699 0.14883
0.29797399 -0.24871901 0.14883
0.29715499 -0.23153199 0.14883
0.29600999 -0.21434399 0.14883
0.29533201 -0.197157 0.14883
0.29567999 -0.179969 0.14883
0.29719999 -0.162782 0.14883
0.299348 -0.145594 0.14883
0.30139199 -0.128407 0.14883
0.30283499 -0.111219 0.14883
0.303184 -0.094031997 0.14883
0.302369 -0.076844402 0.14883
0.301153 -0.059657 0.14883
0.30068001 -0.042469501 0.14883
0.30130699 -0.025281999 0.14883
0.302147 -0.0080944598 0.14883
0.302825 0.0090930499 0.14883
0.30338201 0.026280601 0.14883
0.30373499 0.043467999 0.14883
0.30402699 0.060655601 0.14883
0.30399099 0.077843003 0.14883
-0.301009 0.095030501 0.14883
-0.30086499 0.112218 0.14883
-0.30060601 0.12940601 0.14883
-0.299611 0.146593 0.14883
-0.29735899 0.163781 0.14883
-0.29337099 0.180968 0.14883
-0.29233301 0.18442801 0.14883
-0.28740001 0.198156 0.14883
-0.27857101 0.215343 0.14883
-0.27514601 0.22039901 0.14883
-0.26463601 0.232531 0.14883
-0.25795799 0.23795401 0.14883
-0.24077 0.247384 0.14883
-0.23515099 0.249718 0.14883
-0.223583 0.25378099 0.14883
-0.206396 0.25903001 0.14883
-0.189208 0.26306301 0.14883
-0.17202 0.265852 0.14883
-0.165252 0.26690599 0.14883
-0.154833 0.26837701 0.14883
-0.13764501 0.26997599 0.14883
-0.120458 0.270951 0.14883
-0.103271 0.271873 0.14883
-0.086083002 0.272578 0.14883
-0.068895496 0.27290699 0.14883
-0.051708002 0.273173 0.14883
-0.034520499 0.27375999 0.14883
-0.017333001 0.274553 0.14883
-0.00014549 0.27523601 0.14883
0.27485499 0.206154 0.14883
0.26587299 0.215343 0.14883
0.017042 0.27561101 0.14883
0.034229498 0.27554199 0.14883
0.051417001 0.27528799 0.14883
0.068604499 0.274721 0.14883
0.085791998 0.273514 0.14883
0.102979 0.27160299 0.14883
0.137354 0.26631999 0.14883
0.133976 0.26690599 0.14883
0.120167 0.26907399 0.14883
0.20610499 0.248191 0.14883
0.20146801 0.249718 0.14883
0.154542 0.26263499 0.14883
0.17173 0.25827599 0.14883
0.188917 0.25345901 0.14883
0.22329199 0.241198 0.14883
0.24048001 0.232815 0.14883
0.25766701 0.22202 0.14883
0.24100301 0.232531 0.14883
0.30344099 0.095030501 0.14883
0.30250001 0.112218 0.14883
0.301429 0.12940601 0.14883
0.300073 0.146593 0.14883
0.29719299 0.163781 0.14883
0.29204199 0.179208 0.14883
0.29122201 0.180968 0.14883
0.28110501 0.198156 0.14883
-0.29233301 -0.35184401 0.133035
-0.29233301 -0.33465701 0.14026199
-0.29233301 -0.317469 0.147523
-0.25795799 -0.38621899 0.14482
-0.30952001 -0.0080944598 0.132616
-0.30952001 0.0090930499 0.133053
-0.30952001 0.026280601 0.13304
-0.30952001 0.043467999 0.13309
-0.30952001 0.060655601 0.13264801
-0.30952001 0.077843003 0.13199601
-0.103271 -0.179969 0.139081
-0.086083002 -0.179969 0.141488
-0.103271 -0.162782 0.14283
-0.086083002 -0.162782 0.14586499
-0.068895496 -0.162782 0.13853
-0.103271 -0.145594 0.138197
-0.086083002 -0.145594 0.14152201
-0.068895496 -0.145594 0.142754
0.068604499 -0.40340701 0.147516
0.017042 -0.369032 0.14623401
0.034229498 -0.369032 0.135767
0.051417001 -0.38621899 0.13843501
-0.00014549 -0.35184401 0.13403
0.27485499 -0.40340701 0.13931701
0.29204199 -0.369032 0.134618
0.29204199 -0.35184401 0.146973
0.30922899 -0.128407 0.133294
0.30922899 -0.111219 0.136262
0.30922899 -0.094031997 0.137509
0.30922899 -0.076844402 0.136448
0.30922899 -0.059657 0.13388
0.30922899 -0.042469501 0.132395
0.30922899 -0.025281999 0.133148
0.30922899 -0.0080944598 0.135031
0.30922899 0.0090930499 0.13671701
0.30922899 0.026280601 0.137839
0.30922899 0.043467999 0.138432
0.30922899 0.060655601 0.13877501
0.30922899 0.077843003 0.13854299
-0.30952001 0.12940601 0.131687
-0.29233301 0.198156 0.140284
-0.24077 0.249718 0.140663
-0.17202 0.26690599 0.141909
0.27485499 0.215343 0.133094
0.137354 0.26690599 0.146064
0.20610499 0.249718 0.143254
0.30922899 0.095030501 0.137629
0.30922899 0.112218 0.136187
0.30922899 0.12940601 0.13420101
0.29204199 0.180968 0.14738899
-0.27514601 -0.342619 0.166017
-0.27722299 -0.33465701 0.166017
-0.28075901 -0.317469 0.166017
-0.28301099 -0.300282 0.166017
-0.28444001 -0.28309399 0.166017
-0.28544801 -0.26590699 0.166017
-0.28596699 -0.24871901 0.166017
-0.286394 -0.23153199 0.166017
-0.286704 -0.21434399 0.166017
-0.287018 -0.197157 0.166017
-0.24077 -0.394638 0.166017
-0.251481 -0.38621899 0.166017
-0.25795799 -0.38124701 0.166017
-0.26604399 -0.369032 0.166017
-0.271992 -0.35184401 0.166017
-0.28735 -0.179969 0.166017
-0.28761601 -0.162782 0.166017
-0.28803301 -0.145594 0.166017
-0.28840199 -0.128407 0.166017
-0.28854701 -0.111219 0.166017
-0.289024 -0.094031997 0.166017
-0.29024699 -0.076844402 0.166017
-0.29134199 -0.059657 0.166017
-0.29183 -0.042469501 0.166017
-0.29231 -0.025281999 0.166017
-0.29233301 -0.0246932 0.166017
-0.292714 -0.0080944598 0.166017
-0.29256001 0.0090930499 0.166017
-0.29243699 0.026280601 0.166017
-0.29271799 0.043467999 0.166017
-0.29272899 0.060655601 0.166017
-0.29233301 0.0767764 0.166017
-0.292303 0.077843003 0.166017
0.051417001 -0.40675601 0.166017
0.042831201 -0.40340701 0.166017
0.068604499 -0.41212901 0.166017
0.085791998 -0.414505 0.166017
0.102979 -0.415196 0.166017
0.120167 -0.41672701 0.166017
0.137354 -0.41942 0.166017
0.017042 -0.39456499 0.166017
-0.00014549 -0.390854 0.166017
0.034229498 -0.40014699 0.166017
0.22329199 -0.423917 0.166017
0.20610499 -0.42947999 0.166017
0.23025601 -0.42059401 0.166017
0.24048001 -0.41676301 0.166017
0.25317299 -0.40340701 0.166017
0.25766701 -0.39900199 0.166017
0.26802 -0.38621899 0.166017
0.27485499 -0.37083101 0.166017
0.27568501 -0.369032 0.166017
0.28165701 -0.35184401 0.166017
0.28535399 -0.33465701 0.166017
0.28707099 -0.317469 0.166017
0.28779301 -0.300282 0.166017
0.28849599 -0.28309399 0.166017
0.28911901 -0.26590699 0.166017
0.288912 -0.24871901 0.166017
0.28773701 -0.23153199 0.166017
0.28644899 -0.21434399 0.166017
0.285882 -0.197157 0.166017
0.28623801 -0.179969 0.166017
0.28771201 -0.162782 0.166017
0.289597 -0.145594 0.166017
0.29143399 -0.128407 0.166017
0.29204199 -0.1222 0.166017
0.292781 -0.111219 0.166017
0.29284501 -0.094031997 0.166017
0.29204199 -0.079692997 0.166017
0.291834 -0.076844402 0.166017
0.29068801 -0.059657 0.166017
0.29037699 -0.042469501 0.166017
0.291085 -0.025281999 0.166017
0.29204199 -0.0086451499 0.166017
0.292072 -0.0080944598 0.166017
0.29280299 0.0090930499 0.166017
0.29342699 0.026280601 0.166017
0.29410201 0.043467999 0.166017
0.294568 0.060655601 0.166017
0.29432699 0.077843003 0.166017
-0.29196301 0.095030501 0.166017
-0.291953 0.112218 0.166017
-0.291596 0.12940601 0.166017
-0.29006299 0.146593 0.166017
-0.287424 0.163781 0.166017
-0.28342199 0.180968 0.166017
-0.27737999 0.198156 0.166017
-0.27514601 0.20277999 0.166017
-0.267409 0.215343 0.166017
-0.25795799 0.227404 0.166017
-0.252832 0.232531 0.166017
-0.24077 0.24084 0.166017
-0.223583 0.248959 0.166017
-0.22172 0.249718 0.166017
-0.206396 0.255126 0.166017
-0.189208 0.25964299 0.166017
-0.17202 0.26265901 0.166017
-0.154833 0.26506501 0.166017
-0.13852701 0.26690599 0.166017
-0.13764501 0.26698601 0.166017
-0.120458 0.26849499 0.166017
-0.103271 0.26971099 0.166017
-0.086083002 0.270376 0.166017
-0.068895496 0.27076599 0.166017
-0.051708002 0.27084401 0.166017
-0.034520499 0.27107999 0.166017
-0.017333001 0.27176401 0.166017
-0.00014549 0.27260399 0.166017
0.27485499 0.1903 0.166017
0.26953301 0.198156 0.166017
0.25766701 0.211979 0.166017
0.254015 0.215343 0.166017
0.017042 0.27326399 0.166017
0.034229498 0.273406 0.166017
0.051417001 0.27324799 0.166017
0.068604499 0.272697 0.166017
0.085791998 0.271283 0.166017
0.102979 0.26878199 0.166017
0.120167 0.26581299 0.166017
0.113974 0.26690599 0.166017
0.137354 0.26243001 0.166017
0.188917 0.248638 0.166017
0.18540999 0.249718 0.166017
0.20610499 0.24269301 0.166017
0.154542 0.258349 0.166017
0.17173 0.253683 0.166017
0.24048001 0.22551601 0.166017
0.22849201 0.232531 0.166017
0.22329199 0.235194 0.166017
0.29331699 0.095030501 0.166017
0.29205799 0.112218 0.166017
0.29204199 0.112435 0.166017
0.29083499 0.12940601 0.166017
0.28933901 0.146593 0.166017
0.28623 0.163781 0.166017
0.27991101 0.180968 0.166017
-0.232199 -0.40340701 0.166017
-0.017333001 -0.39104 0.166017
-0.034520499 -0.39930001 0.166017
0.188917 -0.431447 0.166017
0.17173 -0.42868301 0.166017
-0.27514601 -0.369032 0.152207
-0.27514601 -0.35184401 0.161046
-0.29233301 -0.300282 0.15188199
-0.29233301 -0.28309399 0.154413
-0.29233301 -0.26590699 0.156013
-0.29233301 -0.24871901 0.156691
-0.29233301 -0.23153199 0.15693501
-0.29233301 -0.21434399 0.156893
-0.29233301 -0.197157 0.157263
-0.24077 -0.40340701 0.15006199
-0.29233301 -0.179969 0.15766899
-0.29233301 -0.162782 0.158031
-0.29233301 -0.145594 0.158858
-0.29233301 -0.128407 0.159468
-0.29233301 -0.111219 0.159679
-0.29233301 -0.094031997 0.160466
-0.29233301 -0.076844402 0.16257299
-0.29233301 -0.059657 0.16436601
-0.29233301 -0.042469501 0.16512001
-0.29233301 -0.025281999 0.165976
-0.29233301 0.077843003 0.165967
0.051417001 -0.40340701 0.16076501
-0.00014549 -0.38621899 0.16142499
0.017042 -0.38621899 0.157297
0.034229498 -0.38621899 0.15025599
-0.00014549 -0.369032 0.15180901
0.24048001 -0.42059401 0.155726
0.27485499 -0.38621899 0.154632
0.29204199 -0.33465701 0.153954
0.29204199 -0.317469 0.15706301
0.29204199 -0.300282 0.158189
0.29204199 -0.28309399 0.15931199
0.29204199 -0.26590699 0.16063701
0.29204199 -0.24871901 0.16043
0.29204199 -0.23153199 0.158475
0.29204199 -0.21434399 0.156314
0.29204199 -0.197157 0.15515099
0.29204199 -0.179969 0.15576001
0.29204199 -0.162782 0.158527
0.29204199 -0.145594 0.16198801
0.29204199 -0.128407 0.16504601
0.29204199 -0.076844402 0.16569699
0.29204199 -0.059657 0.16392399
0.29204199 -0.042469501 0.16343699
0.29204199 -0.025281999 0.16449
-0.29233301 0.095030501 0.165389
-0.29233301 0.112218 0.165363
-0.29233301 0.12940601 0.164749
-0.29233301 0.146593 0.162108
-0.29233301 0.163781 0.157693
-0.29233301 0.180968 0.15068799
-0.27514601 0.215343 0.15435401
-0.25795799 0.232531 0.15900099
-0.223583 0.249718 0.16372401
-0.154833 0.26690599 0.157242
0.27485499 0.198156 0.15852199
0.25766701 0.215343 0.16096701
0.120167 0.26690599 0.16039599
0.188917 0.249718 0.16236299
0.24048001 0.232531 0.14962
0.29204199 0.12940601 0.164272
0.29204199 0.146593 0.162176
0.29204199 0.163781 0.15768699
-0.206396 -0.421579 0.166017
-0.17202 -0.41736799 0.166017
-0.13764501 -0.411955 0.166017
-0.103271 -0.41424999 0.166017
-0.068895496 -0.41197899 0.166017
-0.0411008 -0.40340701 0.166017
-0.068895496 -0.40340701 0.14137
-0.034520499 -0.369032 0.13617501
-0.244082 -0.40585101 0.140544
-0.0144684 -0.38424599 0.15791
-0.0116038 -0.361608 0.13902099
-0.111504 -0.175403 0.134747
-0.111078 -0.151512 0.134599
0.151105 -0.42162001 0.14883
0.191782 -0.43090901 0.151695
-0.27514601 -0.244706 0.18320499
-0.27577201 -0.23153199 0.18320499
-0.27642 -0.21434399 0.18320499
-0.276934 -0.197157 0.18320499
-0.24077 -0.384693 0.18320499
-0.25419301 -0.369032 0.18320499
-0.223626 -0.40340701 0.18320499
-0.23773199 -0.38621899 0.18320499
-0.25795799 -0.35853001 0.18320499
-0.26022801 -0.35184401 0.18320499
-0.264826 -0.33465701 0.18320499
-0.019321101 -0.40340701 0.18320499
-0.034520499 -0.40787801 0.18320499
-0.017333001 -0.40292501 0.18320499
-0.00014549 -0.40190601 0.18320499
-0.268792 -0.317469 0.18320499
-0.271954 -0.300282 0.18320499
-0.27359399 -0.28309399 0.18320499
-0.274342 -0.26590699 0.18320499
-0.27498901 -0.24871901 0.18320499
-0.27711701 -0.179969 0.18320499
-0.27699199 -0.162782 0.18320499
-0.27711999 -0.145594 0.18320499
-0.277307 -0.128407 0.18320499
-0.27749699 -0.111219 0.18320499
-0.27800599 -0.094031997 0.18320499
-0.27895999 -0.076844402 0.18320499
-0.28016201 -0.059657 0.18320499
-0.281086 -0.042469501 0.18320499
-0.281528 -0.025281999 0.18320499
-0.281638 -0.0080944598 0.18320499
-0.28153899 0.0090930499 0.18320499
-0.28136799 0.026280601 0.18320499
-0.28121999 0.043467999 0.18320499
-0.281084 0.060655601 0.18320499
-0.28057399 0.077843003 0.18320499
0.017042 -0.40538999 0.18320499
0.0089177499 -0.40340701 0.18320499
0.034229498 -0.40928 0.18320499
0.051417001 -0.413519 0.18320499
0.068604499 -0.416637 0.18320499
0.085791998 -0.41707 0.18320499
0.102979 -0.416435 0.18320499
0.120167 -0.416381 0.18320499
0.137354 -0.41864601 0.18320499
0.188917 -0.42717001 0.18320499
0.17173 -0.427387 0.18320499
0.20610499 -0.423545 0.18320499
0.21476901 -0.42059401 0.18320499
0.22329199 -0.41780001 0.18320499
0.229064 -0.40340701 0.18320499
0.24048001 -0.399086 0.18320499
0.256991 -0.38621899 0.18320499
0.25766701 -0.38456801 0.18320499
0.26428199 -0.369032 0.18320499
0.270895 -0.35184401 0.18320499
0.27485499 -0.33549401 0.18320499
0.274986 -0.33465701 0.18320499
0.27676201 -0.317469 0.18320499
0.27765799 -0.300282 0.18320499
0.278505 -0.28309399 0.18320499
0.279102 -0.26590699 0.18320499
0.27867699 -0.24871901 0.18320499
0.27736601 -0.23153199 0.18320499
0.27610999 -0.21434399 0.18320499
0.27533999 -0.197157 0.18320499
0.27535999 -0.179969 0.18320499
0.27638501 -0.162782 0.18320499
0.277996 -0.145594 0.18320499
0.279861 -0.128407 0.18320499
0.28123 -0.111219 0.18320499
0.28110999 -0.094031997 0.18320499
0.280119 -0.076844402 0.18320499
0.27931499 -0.059657 0.18320499
0.279138 -0.042469501 0.18320499
0.279917 -0.025281999 0.18320499
0.28097999 -0.0080944598 0.18320499
0.28160799 0.0090930499 0.18320499
0.28240901 0.026280601 0.18320499
0.28334299 0.043467999 0.18320499
0.28377301 0.060655601 0.18320499
0.28305501 0.077843003 0.18320499
-0.28047201 0.095030501 0.18320499
-0.28063601 0.112218 0.18320499
-0.28006601 0.12940601 0.18320499
-0.27885899 0.146593 0.18320499
-0.276645 0.163781 0.18320499
-0.27514601 0.171305 0.18320499
-0.27261901 0.180968 0.18320499
-0.265744 0.198156 0.18320499
-0.25795799 0.211081 0.18320499
-0.254814 0.215343 0.18320499
-0.24077 0.230258 0.18320499
-0.237988 0.232531 0.18320499
-0.223583 0.24176399 0.18320499
-0.20706201 0.249718 0.18320499
-0.206396 0.249992 0.18320499
-0.189208 0.25547001 0.18320499
-0.17202 0.25880101 0.18320499
-0.154833 0.26114801 0.18320499
-0.13764501 0.263423 0.18320499
-0.120458 0.26541001 0.18320499
-0.103271 0.266866 0.18320499
-0.102553 0.26690599 0.18320499
-0.086083002 0.26773599 0.18320499
-0.068895496 0.268363 0.18320499
-0.051708002 0.26859301 0.18320499
-0.034520499 0.26872501 0.18320499
-0.017333001 0.26933101 0.18320499
-0.00014549 0.270237 0.18320499
0.27485499 0.15659 0.18320499
0.27310401 0.163781 0.18320499
0.26655 0.180968 0.18320499
0.24048001 0.21531799 0.18320499
0.240449 0.215343 0.18320499
0.25766701 0.19686601 0.18320499
0.25675601 0.198156 0.18320499
0.017042 0.27090999 0.18320499
0.034229498 0.271056 0.18320499
0.051417001 0.270735 0.18320499
0.068604499 0.26995 0.18320499
0.102979 0.26548499 0.18320499
0.094513401 0.26690599 0.18320499
0.085791998 0.26822999 0.18320499
0.120167 0.262095 0.18320499
0.137354 0.257981 0.18320499
0.17173 0.24837101 0.18320499
0.167463 0.249718 0.18320499
0.188917 0.242575 0.18320499
0.20610499 0.235728 0.18320499
0.154542 0.253526 0.18320499
0.22329199 0.227025 0.18320499
0.212909 0.232531 0.18320499
0.28124401 0.095030501 0.18320499
0.279423 0.112218 0.18320499
0.27816001 0.12940601 0.18320499
0.27652299 0.146593 0.18320499
-0.27514601 -0.33465701 0.169091
-0.27514601 -0.317469 0.17457899
-0.27514601 -0.300282 0.178629
-0.27514601 -0.28309399 0.18083701
-0.27514601 -0.26590699 0.182005
-0.27514601 -0.24871901 0.18297
-0.24077 -0.38621899 0.17999201
-0.25795799 -0.369032 0.178183
-0.034520499 -0.40340701 0.17179701
-0.29233301 -0.0080944598 0.166674
-0.29233301 0.0090930499 0.166418
-0.29233301 0.026280601 0.16619299
-0.29233301 0.043467999 0.166638
-0.29233301 0.060655601 0.16667099
0.017042 -0.40340701 0.179537
0.034229498 -0.40340701 0.17054699
0.22329199 -0.42059401 0.175395
0.24048001 -0.40340701 0.174006
0.25766701 -0.38621899 0.182285
0.27485499 -0.369032 0.167421
0.27485499 -0.35184401 0.177395
0.29204199 -0.111219 0.16719601
0.29204199 -0.094031997 0.167264
0.29204199 -0.0080944598 0.166067
0.29204199 0.0090930499 0.16725899
0.29204199 0.026280601 0.168284
0.29204199 0.043467999 0.169505
0.29204199 0.060655601 0.170311
0.29204199 0.077843003 0.16973101
-0.27514601 0.180968 0.179556
-0.27514601 0.198156 0.169687
-0.25795799 0.215343 0.179345
-0.24077 0.232531 0.18022101
-0.13764501 0.26690599 0.166421
-0.120458 0.26690599 0.17541701
-0.103271 0.26690599 0.182998
0.27485499 0.163781 0.181021
0.27485499 0.180968 0.172653
0.24048001 0.215343 0.18316901
0.25766701 0.198156 0.182015
0.102979 0.26690599 0.176112
0.17173 0.249718 0.179197
0.22329199 0.232531 0.172333
0.29204199 0.095030501 0.167946
0.29204199 0.112218 0.166041
-0.223583 -0.38952699 0.20039199
-0.22719701 -0.38621899 0.20039199
-0.21294001 -0.40340701 0.20039199
-0.24029399 -0.369032 0.20039199
-0.24077 -0.36779001 0.20039199
-0.247031 -0.35184401 0.20039199
-0.251984 -0.33465701 0.20039199
-0.017333001 -0.408824 0.20039199
-0.034520499 -0.41077799 0.20039199
-0.00014549 -0.40922701 0.20039199
-0.25605899 -0.317469 0.20039199
-0.25795799 -0.30946201 0.20039199
-0.25993699 -0.300282 0.20039199
-0.26231799 -0.28309399 0.20039199
-0.262869 -0.26590699 0.20039199
-0.263091 -0.24871901 0.20039199
-0.26405501 -0.23153199 0.20039199
-0.26541901 -0.21434399 0.20039199
-0.26637301 -0.197157 0.20039199
-0.26655999 -0.179969 0.20039199
-0.26622301 -0.162782 0.20039199
-0.26581299 -0.145594 0.20039199
-0.265596 -0.128407 0.20039199
-0.26561999 -0.111219 0.20039199
-0.266047 -0.094031997 0.20039199
-0.26688001 -0.076844402 0.20039199
-0.26783499 -0.059657 0.20039199
-0.268563 -0.042469501 0.20039199
-0.26893601 -0.025281999 0.20039199
-0.268962 -0.0080944598 0.20039199
-0.26894501 0.0090930499 0.20039199
-0.26894501 0.026280601 0.20039199
-0.26869401 0.043467999 0.20039199
-0.26831099 0.060655601 0.20039199
-0.267822 0.077843003 0.20039199
0.017042 -0.410979 0.20039199
0.034229498 -0.41341999 0.20039199
0.051417001 -0.416614 0.20039199
0.068604499 -0.418275 0.20039199
0.085791998 -0.41823399 0.20039199
0.102979 -0.41756999 0.20039199
0.120167 -0.416237 0.20039199
0.137354 -0.41735601 0.20039199
0.188917 -0.422261 0.20039199
0.17173 -0.42373401 0.20039199
0.19687 -0.42059401 0.20039199
0.20610499 -0.41739699 0.20039199
0.215361 -0.40340701 0.20039199
0.22329199 -0.399692 0.20039199
0.24048001 -0.389153 0.20039199
0.24227899 -0.38621899 0.20039199
0.25055701 -0.369032 0.20039199
0.25766701 -0.352393 0.20039199
0.257873 -0.35184401 0.20039199
0.26263899 -0.33465701 0.20039199
0.26456401 -0.317469 0.20039199
0.265342 -0.300282 0.20039199
0.266343 -0.28309399 0.20039199
0.26716301 -0.26590699 0.20039199
0.266969 -0.24871901 0.20039199
0.26577401 -0.23153199 0.20039199
0.264301 -0.21434399 0.20039199
0.26328701 -0.197157 0.20039199
0.26313299 -0.179969 0.20039199
0.26386499 -0.162782 0.20039199
0.26540101 -0.145594 0.20039199
0.26723099 -0.128407 0.20039199
0.268437 -0.111219 0.20039199
0.26853701 -0.094031997 0.20039199
0.26797101 -0.076844402 0.20039199
0.26730701 -0.059657 0.20039199
0.26723599 -0.042469501 0.20039199
0.26790899 -0.025281999 0.20039199
0.26868501 -0.0080944598 0.20039199
0.26949999 0.0090930499 0.20039199
0.27036899 0.026280601 0.20039199
0.270962 0.043467999 0.20039199
0.27114701 0.060655601 0.20039199
0.27031901 0.077843003 0.20039199
-0.26774999 0.095030501 0.20039199
-0.267984 0.112218 0.20039199
-0.26755899 0.12940601 0.20039199
-0.266269 0.146593 0.20039199
-0.26371899 0.163781 0.20039199
-0.259231 0.180968 0.20039199
-0.25795799 0.184661 0.20039199
-0.25148001 0.198156 0.20039199
-0.24077 0.21429899 0.20039199
-0.239962 0.215343 0.20039199
-0.223583 0.23187301 0.20039199
-0.22277699 0.232531 0.20039199
-0.206396 0.243183 0.20039199
-0.191607 0.249718 0.20039199
-0.189208 0.25055701 0.20039199
-0.17202 0.25465101 0.20039199
-0.154833 0.25701001 0.20039199
-0.13764501 0.25942299 0.20039199
-0.120458 0.26163399 0.20039199
-0.103271 0.26333299 0.20039199
-0.086083002 0.26459101 0.20039199
-0.068895496 0.26549 0.20039199
-0.051708002 0.266103 0.20039199
-0.034520499 0.26650599 0.20039199
-0.020422 0.26690599 0.20039199
-0.017333001 0.267028 0.20039199
-0.00014549 0.26776701 0.20039199
0.268446 0.095030501 0.20039199
0.26656401 0.112218 0.20039199
0.264878 0.12940601 0.20039199
0.26270899 0.146593 0.20039199
0.25940999 0.163781 0.20039199
0.25766701 0.17022701 0.20039199
0.25358599 0.180968 0.20039199
0.24048001 0.201086 0.20039199
0.224562 0.215343 0.20039199
0.24304999 0.198156 0.20039199
0.017042 0.26821199 0.20039199
0.034229498 0.268125 0.20039199
0.068604499 0.26635501 0.20039199
0.061597299 0.26690599 0.20039199
0.051417001 0.267506 0.20039199
0.085791998 0.26437601 0.20039199
0.102979 0.26139399 0.20039199
0.120167 0.25732401 0.20039199
0.137354 0.25263399 0.20039199
0.154542 0.247609 0.20039199
0.14781 0.249718 0.20039199
0.17173 0.24155 0.20039199
0.20610499 0.226739 0.20039199
0.194398 0.232531 0.20039199
0.188917 0.234915 0.20039199
0.22329199 0.21627399 0.20039199
-0.051708002 -0.41363701 0.20039199
-0.068895496 -0.415813 0.20039199
0.154542 -0.42170799 0.20039199
0.149932 -0.42059401 0.20039199
-0.27514601 -0.23153199 0.184187
-0.27514601 -0.21434399 0.18533599
-0.27514601 -0.197157 0.186359
-0.24077 -0.369032 0.19987001
-0.223583 -0.40340701 0.183309
-0.25795799 -0.35184401 0.18634699
-0.25795799 -0.33465701 0.19261099
-0.017333001 -0.40340701 0.184406
-0.00014549 -0.40340701 0.186012
-0.25795799 -0.317469 0.197946
-0.27514601 -0.179969 0.186674
-0.27514601 -0.162782 0.18634
-0.27514601 -0.145594 0.186316
-0.27514601 -0.128407 0.18643101
-0.27514601 -0.111219 0.18677101
-0.27514601 -0.094031997 0.187529
-0.27514601 -0.076844402 0.188749
-0.27514601 -0.059657 0.190402
-0.27514601 -0.042469501 0.191687
-0.27514601 -0.025281999 0.19225299
-0.27514601 -0.0080944598 0.192275
-0.27514601 0.0090930499 0.192139
-0.27514601 0.026280601 0.192083
-0.27514601 0.043467999 0.19170199
-0.27514601 0.060655601 0.191249
-0.27514601 0.077843003 0.190603
0.20610499 -0.42059401 0.19088399
0.22329199 -0.40340701 0.191018
0.25766701 -0.369032 0.192173
0.27485499 -0.33465701 0.183405
0.27485499 -0.317469 0.186213
0.27485499 -0.300282 0.187571
0.27485499 -0.28309399 0.18885501
0.27485499 -0.26590699 0.189873
0.27485499 -0.24871901 0.18922199
0.27485499 -0.23153199 0.187132
0.27485499 -0.21434399 0.18516301
0.27485499 -0.197157 0.183944
0.27485499 -0.179969 0.183944
0.27485499 -0.162782 0.185377
0.27485499 -0.145594 0.18765201
0.27485499 -0.128407 0.190322
0.27485499 -0.111219 0.192065
0.27485499 -0.094031997 0.191916
0.27485499 -0.076844402 0.190749
0.27485499 -0.059657 0.18978401
0.27485499 -0.042469501 0.18972
0.27485499 -0.025281999 0.19078401
0.27485499 -0.0080944598 0.192027
0.27485499 0.0090930499 0.19306301
0.27485499 0.026280601 0.19434699
0.27485499 0.043467999 0.195334
0.27485499 0.060655601 0.195645
0.27485499 0.077843003 0.194521
-0.27514601 0.095030501 0.190543
-0.27514601 0.112218 0.190888
-0.27514601 0.12940601 0.19020601
-0.27514601 0.146593 0.188637
-0.27514601 0.163781 0.18543901
-0.25795799 0.198156 0.193028
-0.24077 0.215343 0.199441
-0.223583 0.232531 0.199433
-0.206396 0.249718 0.18395799
-0.086083002 0.26690599 0.18798
-0.068895496 0.26690599 0.19233701
-0.051708002 0.26690599 0.195206
-0.034520499 0.26690599 0.197267
0.27485499 0.095030501 0.19189
0.27485499 0.112218 0.18933401
0.27485499 0.12940601 0.187527
0.27485499 0.146593 0.18533801
0.25766701 0.180968 0.194904
0.068604499 0.26690599 0.198135
0.085791998 0.26690599 0.189565
0.154542 0.249718 0.19476099
0.20610499 0.232531 0.189841
-0.206396 -0.411944 0.20039199
-0.17202 -0.42432001 0.20039199
-0.13764501 -0.420344 0.20039199
-0.103271 -0.41833499 0.20039199
-0.21752299 -0.40785801 0.183222
-0.0477373 -0.40955701 0.18403099
0.15396599 -0.42219099 0.187502
-0.206396 -0.39197999 0.21758001
-0.210307 -0.38621899 0.21758001
-0.223583 -0.36926299 0.21758001
-0.223719 -0.369032 0.21758001
-0.231768 -0.35184401 0.21758001
-0.238492 -0.33465701 0.21758001
-0.051708002 -0.41331199 0.21758001
-0.068895496 -0.416426 0.21758001
-0.034520499 -0.411443 0.21758001
-0.017333001 -0.41176 0.21758001
-0.00014549 -0.412734 0.21758001
-0.24077 -0.326491 0.21758001
-0.242925 -0.317469 0.21758001
-0.246638 -0.300282 0.21758001
-0.249451 -0.28309399 0.21758001
-0.250469 -0.26590699 0.21758001
-0.25044599 -0.24871901 0.21758001
-0.25089601 -0.23153199 0.21758001
-0.25182801 -0.21434399 0.21758001
-0.25234401 -0.197157 0.21758001
-0.25275999 -0.179969 0.21758001
-0.253034 -0.162782 0.21758001
-0.25288799 -0.145594 0.21758001
-0.252617 -0.128407 0.21758001
-0.252114 -0.111219 0.21758001
-0.25174901 -0.094031997 0.21758001
-0.25258499 -0.076844402 0.21758001
-0.25407499 -0.059657 0.21758001
-0.25509599 -0.042469501 0.21758001
-0.255449 -0.025281999 0.21758001
-0.25533199 -0.0080944598 0.21758001
-0.25532299 0.0090930499 0.21758001
-0.25541201 0.026280601 0.21758001
-0.25514299 0.043467999 0.21758001
-0.25470799 0.060655601 0.21758001
-0.25442401 0.077843003 0.21758001
0.017042 -0.41334301 0.21758001
0.034229498 -0.41525 0.21758001
0.051417001 -0.41766101 0.21758001
0.068604499 -0.419103 0.21758001
0.085791998 -0.41973901 0.21758001
0.102979 -0.41925099 0.21758001
0.120167 -0.41752699 0.21758001
0.137354 -0.41752699 0.21758001
0.154542 -0.419247 0.21758001
0.17173 -0.419144 0.21758001
0.188917 -0.41845301 0.21758001
0.200029 -0.40340701 0.21758001
0.20610499 -0.39717901 0.21758001
0.22329199 -0.3881 0.21758001
0.224418 -0.38621899 0.21758001
0.23334 -0.369032 0.21758001
0.24048001 -0.354918 0.21758001
0.241763 -0.35184401 0.21758001
0.247385 -0.33465701 0.21758001
0.25029099 -0.317469 0.21758001
0.251468 -0.300282 0.21758001
0.252278 -0.28309399 0.21758001
0.253218 -0.26590699 0.21758001
0.25371 -0.24871901 0.21758001
0.25301799 -0.23153199 0.21758001
0.251598 -0.21434399 0.21758001
0.25018799 -0.197157 0.21758001
0.249589 -0.179969 0.21758001
0.25032899 -0.162782 0.21758001
0.251793 -0.145594 0.21758001
0.25317001 -0.128407 0.21758001
0.25409701 -0.111219 0.21758001
0.25443599 -0.094031997 0.21758001
0.254008 -0.076844402 0.21758001
0.25320801 -0.059657 0.21758001
0.25298601 -0.042469501 0.21758001
0.25377601 -0.025281999 0.21758001
0.25498301 -0.0080944598 0.21758001
0.256008 0.0090930499 0.21758001
0.25678301 0.026280601 0.21758001
0.25726601 0.043467999 0.21758001
0.25731501 0.060655601 0.21758001
0.25664499 0.077843003 0.21758001
-0.254035 0.095030501 0.21758001
-0.25361499 0.112218 0.21758001
-0.25297299 0.12940601 0.21758001
-0.25114101 0.146593 0.21758001
-0.248247 0.163781 0.21758001
-0.243903 0.180968 0.21758001
-0.24077 0.18938699 0.21758001
-0.23626199 0.198156 0.21758001
-0.224646 0.215343 0.21758001
-0.223583 0.216649 0.21758001
-0.20737 0.232531 0.21758001
-0.206396 0.23332199 0.21758001
-0.189208 0.24350099 0.21758001
-0.17202 0.249221 0.21758001
-0.16976801 0.249718 0.21758001
-0.154833 0.25238499 0.21758001
-0.13764501 0.25485301 0.21758001
-0.120458 0.25721201 0.21758001
-0.103271 0.259206 0.21758001
-0.086083002 0.26075 0.21758001
-0.068895496 0.26190799 0.21758001
-0.051708002 0.26297799 0.21758001
-0.034520499 0.26389199 0.21758001
-0.017333001 0.26447001 0.21758001
-0.00014549 0.26484099 0.21758001
0.25485 0.095030501 0.21758001
0.25256699 0.112218 0.21758001
0.25103399 0.12940601 0.21758001
0.24931601 0.146593 0.21758001
0.24048001 0.17962199 0.21758001
0.23983601 0.180968 0.21758001
0.24610101 0.163781 0.21758001
0.22763801 0.198156 0.21758001
0.22329199 0.20228601 0.21758001
0.206855 0.215343 0.21758001
0.017042 0.26494101 0.21758001
0.034229498 0.26447299 0.21758001
0.051417001 0.263322 0.21758001
0.068604499 0.26166201 0.21758001
0.137354 0.246291 0.21758001
0.125993 0.249718 0.21758001
0.085791998 0.259406 0.21758001
0.102979 0.25603601 0.21758001
0.120167 0.251434 0.21758001
0.154542 0.24044199 0.21758001
0.17173 0.23361 0.21758001
0.188917 0.225559 0.21758001
0.174217 0.232531 0.21758001
0.20610499 0.21583501 0.21758001
-0.223583 -0.38621899 0.20350599
-0.206396 -0.40340701 0.208363
-0.24077 -0.35184401 0.207629
-0.24077 -0.33465701 0.214696
-0.25795799 -0.300282 0.20313901
-0.25795799 -0.28309399 0.20686799
-0.25795799 -0.26590699 0.207792
-0.25795799 -0.24871901 0.207738
-0.25795799 -0.23153199 0.208681
-0.25795799 -0.21434399 0.210372
-0.25795799 -0.197157 0.21146099
-0.25795799 -0.179969 0.211849
-0.25795799 -0.162782 0.211808
-0.25795799 -0.145594 0.21143
-0.25795799 -0.128407 0.211088
-0.25795799 -0.111219 0.210548
-0.25795799 -0.094031997 0.21048599
-0.25795799 -0.076844402 0.211656
-0.25795799 -0.059657 0.21308599
-0.25795799 -0.042469501 0.21401399
-0.25795799 -0.025281999 0.214449
-0.25795799 -0.0080944598 0.21440101
-0.25795799 0.0090930499 0.21442001
-0.25795799 0.026280601 0.214552
-0.25795799 0.043467999 0.21424299
-0.25795799 0.060655601 0.21375
-0.25795799 0.077843003 0.21337099
0.154542 -0.42059401 0.20898899
0.17173 -0.42059401 0.21270201
0.188917 -0.42059401 0.20493101
0.20610499 -0.40340701 0.21017499
0.24048001 -0.38621899 0.20246001
0.24048001 -0.369032 0.21103901
0.25766701 -0.35184401 0.200628
0.25766701 -0.33465701 0.206375
0.25766701 -0.317469 0.20897099
0.25766701 -0.300282 0.21016601
0.25766701 -0.28309399 0.21130601
0.25766701 -0.26590699 0.21243399
0.25766701 -0.24871901 0.21275
0.25766701 -0.23153199 0.21165299
0.25766701 -0.21434399 0.209758
0.25766701 -0.197157 0.208066
0.25766701 -0.179969 0.20757499
0.25766701 -0.162782 0.208455
0.25766701 -0.145594 0.21029
0.25766701 -0.128407 0.21215799
0.25766701 -0.111219 0.213385
0.25766701 -0.094031997 0.213838
0.25766701 -0.076844402 0.213456
0.25766701 -0.059657 0.212662
0.25766701 -0.042469501 0.212338
0.25766701 -0.025281999 0.21314199
0.25766701 -0.0080944598 0.214441
0.25766701 0.0090930499 0.21559
0.25766701 0.026280601 0.21651401
0.25766701 0.043467999 0.21709999
0.25766701 0.060655601 0.217159
0.25766701 0.077843003 0.21634699
-0.25795799 0.095030501 0.21299499
-0.25795799 0.112218 0.212698
-0.25795799 0.12940601 0.212024
-0.25795799 0.146593 0.210171
-0.25795799 0.163781 0.207026
-0.25795799 0.180968 0.20184401
-0.24077 0.198156 0.21254499
-0.189208 0.249718 0.20290899
-0.17202 0.249718 0.216278
-0.017333001 0.26690599 0.20133001
-0.00014549 0.26690599 0.20583899
0.25766701 0.095030501 0.214228
0.25766701 0.112218 0.211624
0.25766701 0.12940601 0.209646
0.25766701 0.146593 0.20697699
0.24048001 0.180968 0.216838
0.25766701 0.163781 0.202696
0.24048001 0.198156 0.203455
0.22329199 0.215343 0.20170601
0.017042 0.26690599 0.20767701
0.034229498 0.26690599 0.20653801
0.051417001 0.26690599 0.20306499
0.137354 0.249718 0.2087
0.188917 0.232531 0.20494901
-0.206396 -0.36949199 0.234767
-0.206652 -0.369032 0.234767
-0.21514601 -0.35184401 0.234767
-0.22282501 -0.33465701 0.234767
-0.051708002 -0.413517 0.234767
-0.068895496 -0.41680199 0.234767
-0.034520499 -0.41183099 0.234767
-0.017333001 -0.41251001 0.234767
-0.00014549 -0.41423401 0.234767
-0.223583 -0.332573 0.234767
-0.228246 -0.317469 0.234767
-0.23207 -0.300282 0.234767
-0.233915 -0.28309399 0.234767
-0.234337 -0.26590699 0.234767
-0.234283 -0.24871901 0.234767
-0.234515 -0.23153199 0.234767
-0.23508801 -0.21434399 0.234767
-0.23539899 -0.197157 0.234767
-0.235625 -0.179969 0.234767
-0.235817 -0.162782 0.234767
-0.23560201 -0.145594 0.234767
-0.23532701 -0.128407 0.234767
-0.23557 -0.111219 0.234767
-0.235934 -0.094031997 0.234767
-0.236858 -0.076844402 0.234767
-0.238291 -0.059657 0.234767
-0.239318 -0.042469501 0.234767
-0.2397 -0.025281999 0.234767
-0.239471 -0.0080944598 0.234767
-0.239329 0.0090930499 0.234767
-0.239555 0.026280601 0.234767
-0.23953301 0.043467999 0.234767
-0.23890001 0.060655601 0.234767
-0.23823901 0.077843003 0.234767
0.017042 -0.415748 0.234767
0.034229498 -0.41768599 0.234767
0.068604499 -0.420816 0.234767
0.065465502 -0.42059401 0.234767
0.051417001 -0.41950399 0.234767
0.085791998 -0.421487 0.234767
0.102979 -0.42097101 0.234767
0.107526 -0.42059401 0.234767
0.120167 -0.41908401 0.234767
0.137354 -0.41686001 0.234767
0.154542 -0.41611099 0.234767
0.17173 -0.41703001 0.234767
0.184264 -0.40340701 0.234767
0.188917 -0.391287 0.234767
0.20528699 -0.38621899 0.234767
0.20610499 -0.384857 0.234767
0.21408001 -0.369032 0.234767
0.22329199 -0.35275501 0.234767
0.22373401 -0.35184401 0.234767
0.230335 -0.33465701 0.234767
0.23426899 -0.317469 0.234767
0.23601601 -0.300282 0.234767
0.236935 -0.28309399 0.234767
0.23796301 -0.26590699 0.234767
0.238508 -0.24871901 0.234767
0.238022 -0.23153199 0.234767
0.23681501 -0.21434399 0.234767
0.235333 -0.197157 0.234767
0.234749 -0.179969 0.234767
0.235553 -0.162782 0.234767
0.236954 -0.145594 0.234767
0.238141 -0.128407 0.234767
0.238879 -0.111219 0.234767
0.239015 -0.094031997 0.234767
0.23799001 -0.076844402 0.234767
0.236697 -0.059657 0.234767
0.236452 -0.042469501 0.234767
0.237239 -0.025281999 0.234767
0.238557 -0.0080944598 0.234767
0.239949 0.0090930499 0.234767
0.24048001 0.01612 0.234767
0.2411 0.026280601 0.234767
0.241942 0.043467999 0.234767
0.24215101 0.060655601 0.234767
0.24138901 0.077843003 0.234767
-0.237646 0.095030501 0.234767
-0.237169 0.112218 0.234767
-0.23631699 0.12940601 0.234767
-0.234418 0.146593 0.234767
-0.231626 0.163781 0.234767
-0.227374 0.180968 0.234767
-0.223583 0.191091 0.234767
-0.21991099 0.198156 0.234767
-0.20836601 0.215343 0.234767
-0.206396 0.217792 0.234767
-0.189797 0.232531 0.234767
-0.189208 0.232939 0.234767
-0.17202 0.241053 0.234767
-0.154833 0.24533901 0.234767
-0.13764501 0.248825 0.234767
-0.132789 0.249718 0.234767
-0.120458 0.25161999 0.234767
-0.103271 0.25370699 0.234767
-0.086083002 0.25542599 0.234767
-0.068895496 0.25708801 0.234767
-0.051708002 0.25879699 0.234767
-0.034520499 0.26022401 0.234767
-0.017333001 0.26098201 0.234767
-0.00014549 0.260993 0.234767
0.24048001 0.088553697 0.234767
0.23973501 0.095030501 0.234767
0.237663 0.112218 0.234767
0.236095 0.12940601 0.234767
0.234487 0.146593 0.234767
0.188917 0.214718 0.234767
0.187898 0.215343 0.234767
0.20610499 0.201621 0.234767
0.230856 0.163781 0.234767
0.223469 0.180968 0.234767
0.22329199 0.18127701 0.234767
0.20982499 0.198156 0.234767
0.017042 0.260584 0.234767
0.034229498 0.259507 0.234767
0.051417001 0.25790501 0.234767
0.068604499 0.256019 0.234767
0.102979 0.249652 0.234767
0.102736 0.249718 0.234767
0.120167 0.24454901 0.234767
0.137354 0.238893 0.234767
0.085791998 0.25344801 0.234767
0.154542 0.23229399 0.234767
0.154001 0.232531 0.234767
0.17173 0.224145 0.234767
-0.206396 -0.38621899 0.223037
-0.223583 -0.369032 0.217731
-0.223583 -0.35184401 0.226568
-0.223583 -0.33465701 0.234044
-0.24077 -0.317469 0.22052801
-0.24077 -0.300282 0.22484501
-0.24077 -0.28309399 0.22728901
-0.24077 -0.26590699 0.22831
-0.24077 -0.24871901 0.22841699
-0.24077 -0.23153199 0.228634
-0.24077 -0.21434399 0.229242
-0.24077 -0.197157 0.22943901
-0.24077 -0.179969 0.22966
-0.24077 -0.162782 0.22998901
-0.24077 -0.145594 0.22988801
-0.24077 -0.128407 0.229638
-0.24077 -0.111219 0.22972199
-0.24077 -0.094031997 0.22973
-0.24077 -0.076844402 0.230507
-0.24077 -0.059657 0.232161
-0.24077 -0.042469501 0.23334999
-0.24077 -0.025281999 0.23373
-0.24077 -0.0080944598 0.23347899
-0.24077 0.0090930499 0.233356
-0.24077 0.026280601 0.233548
-0.24077 0.043467999 0.233476
-0.24077 0.060655601 0.232776
-0.24077 0.077843003 0.23207401
0.068604499 -0.42059401 0.233086
0.085791998 -0.42059401 0.22538599
0.102979 -0.42059401 0.23035701
0.188917 -0.40340701 0.22887801
0.20610499 -0.38621899 0.234006
0.22329199 -0.38621899 0.21855401
0.22329199 -0.369032 0.226408
0.24048001 -0.35184401 0.218816
0.24048001 -0.33465701 0.22459701
0.24048001 -0.317469 0.228338
0.24048001 -0.300282 0.22993501
0.24048001 -0.28309399 0.23084401
0.24048001 -0.26590699 0.232002
0.24048001 -0.24871901 0.23266999
0.24048001 -0.23153199 0.23213699
0.24048001 -0.21434399 0.23074099
0.24048001 -0.197157 0.22912399
0.24048001 -0.179969 0.228349
0.24048001 -0.162782 0.229238
0.24048001 -0.145594 0.230902
0.24048001 -0.128407 0.23225901
0.24048001 -0.111219 0.233073
0.24048001 -0.094031997 0.23321
0.24048001 -0.076844402 0.23216
0.24048001 -0.059657 0.23095401
0.24048001 -0.042469501 0.230783
0.24048001 -0.025281999 0.231576
0.24048001 -0.0080944598 0.232913
0.24048001 0.0090930499 0.234255
-0.24077 0.095030501 0.231619
-0.24077 0.112218 0.231233
-0.24077 0.12940601 0.230396
-0.24077 0.146593 0.228453
-0.24077 0.163781 0.22549599
-0.24077 0.180968 0.221036
-0.223583 0.198156 0.231093
-0.223583 0.215343 0.218716
-0.206396 0.232531 0.218623
-0.154833 0.249718 0.22525901
-0.13764501 0.249718 0.232619
0.24048001 0.095030501 0.233961
0.24048001 0.112218 0.23168699
0.24048001 0.12940601 0.229954
0.24048001 0.146593 0.228154
0.188917 0.215343 0.233889
0.20610499 0.215343 0.218271
0.24048001 0.163781 0.224289
0.22329199 0.198156 0.22194
0.102979 0.249718 0.23459999
0.120167 0.249718 0.22206201
0.154542 0.232531 0.234327
0.17173 0.232531 0.219713
-0.17202 -0.41341799 0.234767
-0.180126 -0.40340701 0.234767
-0.13764501 -0.42640799 0.234767
