# .PCD v0.7 - Point Cloud Data file format
VERSION 0.7
FIELDS x y z
SIZE 4 4 4
TYPE F F F
COUNT 1 1 1
WIDTH 1462
HEIGHT 1
VIEWPOINT 0 0 0 1 0 0 0
POINTS 1462
DATA ascii
0.102979 0.258872 -0.246483
0.137354 0.25091201 -0.246483
0.17173 0.238133 -0.246483
0.14164101 0.249718 -0.246483
-0.17202 -0.40340701 -0.247988
-0.13764501 -0.40340701 -0.26907301
-0.206396 -0.33465701 -0.25533801
-0.17202 -0.369032 -0.266983
-0.17202 -0.33465701 -0.280159
-0.206396 -0.300282 -0.26704201
-0.206396 -0.26590699 -0.27169901
-0.206396 -0.23153199 -0.27276999
-0.206396 -0.197157 -0.27322701
-0.206396 -0.162782 -0.273646
-0.206396 -0.128407 -0.27398399
-0.206396 -0.094031997 -0.274014
-0.206396 -0.059657 -0.273684
-0.206396 -0.025281999 -0.27378699
-0.206396 0.0090930499 -0.27449501
-0.206396 0.043467999 -0.27507401
-0.206396 0.077843003 -0.27523199
0.102979 -0.40340701 -0.27830201
0.137354 -0.40340701 -0.26385799
0.137354 -0.369032 -0.27985001
0.17173 -0.369032 -0.261751
0.17173 -0.33465701 -0.27338001
0.20610499 -0.33465701 -0.25155899
0.20610499 -0.300282 -0.25930899
0.20610499 -0.26590699 -0.26391801
0.20610499 -0.23153199 -0.26655799
0.20610499 -0.197157 -0.268805
0.20610499 -0.162782 -0.27151999
0.20610499 -0.128407 -0.27396101
0.20610499 -0.094031997 -0.275123
0.20610499 -0.059657 -0.275453
0.24048001 -0.094031997 -0.247209
0.24048001 -0.059657 -0.247998
0.20610499 -0.025281999 -0.27571699
0.20610499 0.0090930499 -0.27585301
0.24048001 -0.025281999 -0.24865299
0.24048001 0.0090930499 -0.24869999
0.20610499 0.043467999 -0.27588299
0.20610499 0.077843003 -0.27601701
0.24048001 0.043467999 -0.248539
0.24048001 0.077843003 -0.248918
-0.206396 0.112218 -0.27469301
-0.206396 0.146593 -0.27211401
-0.206396 0.180968 -0.26301301
-0.17202 0.215343 -0.265605
-0.13764501 0.249718 -0.247583
-0.103271 0.249718 -0.265962
-0.068895496 0.249718 -0.27874401
0.20610499 0.112218 -0.27604601
0.20610499 0.146593 -0.27449799
0.24048001 0.112218 -0.24924999
0.24048001 0.146593 -0.247311
0.20610499 0.180968 -0.26697701
0.17173 0.215343 -0.27210799
0.068604499 0.249718 -0.27965799
0.102979 0.249718 -0.26853999
0.137354 0.249718 -0.249301
-0.206396 -0.41014799 -0.212108
-0.21423399 -0.40340701 -0.212108
-0.17202 -0.42036399 -0.212108
-0.13764501 -0.417503 -0.212108
-0.234707 -0.369032 -0.212108
-0.24077 -0.35508999 -0.212108
-0.249661 -0.33465701 -0.212108
-0.103271 -0.41323 -0.212108
-0.068895496 -0.41047701 -0.212108
-0.034520499 -0.40901101 -0.212108
-0.00014549 -0.40807301 -0.212108
-0.26132801 -0.300282 -0.212108
-0.26618499 -0.26590699 -0.212108
-0.267836 -0.23153199 -0.212108
-0.268574 -0.197157 -0.212108
-0.268704 -0.162782 -0.212108
-0.268567 -0.128407 -0.212108
-0.269252 -0.094031997 -0.212108
-0.27069801 -0.059657 -0.212108
-0.27160099 -0.025281999 -0.212108
-0.271752 0.0090930499 -0.212108
-0.27192801 0.043467999 -0.212108
-0.27207801 0.077843003 -0.212108
0.034229498 -0.40769401 -0.212108
0.068604499 -0.408553 -0.212108
0.102979 -0.411625 -0.212108
0.137354 -0.41593301 -0.212108
0.17173 -0.41834 -0.212108
0.20610499 -0.41244 -0.212108
0.219768 -0.40340701 -0.212108
0.239308 -0.369032 -0.212108
0.24048001 -0.36610001 -0.212108
0.251789 -0.33465701 -0.212108
0.26051301 -0.300282 -0.212108
0.26544401 -0.26590699 -0.212108
0.268536 -0.23153199 -0.212108
0.27035099 -0.197157 -0.212108
0.271366 -0.162782 -0.212108
0.27224499 -0.128407 -0.212108
0.27344501 -0.094031997 -0.212108
0.27474901 -0.059657 -0.212108
0.27485499 -0.056564301 -0.212108
0.275695 -0.025281999 -0.212108
0.27614501 0.0090930499 -0.212108
0.276398 0.043467999 -0.212108
0.27674699 0.077843003 -0.212108
-0.27129501 0.112218 -0.212108
-0.268071 0.146593 -0.212108
-0.25858399 0.180968 -0.212108
-0.24077 0.21236099 -0.212108
-0.238306 0.215343 -0.212108
-0.206396 0.242039 -0.212108
-0.19100299 0.249718 -0.212108
-0.17202 0.256634 -0.212108
-0.13764501 0.266983 -0.212108
-0.103271 0.27401701 -0.212108
-0.068895496 0.27778801 -0.212108
-0.034520499 0.27911201 -0.212108
-0.00014549 0.278519 -0.212108
0.27485499 0.140111 -0.212108
0.27411199 0.146593 -0.212108
0.26355699 0.180968 -0.212108
0.24048001 0.21335 -0.212108
0.238451 0.215343 -0.212108
0.034229498 0.27660301 -0.212108
0.068604499 0.273476 -0.212108
0.102979 0.26903501 -0.212108
0.137354 0.26272699 -0.212108
0.20610499 0.239623 -0.212108
0.184148 0.249718 -0.212108
0.17173 0.25371599 -0.212108
0.27659899 0.112218 -0.212108
-0.206396 -0.40340701 -0.220422
-0.206396 -0.369032 -0.240843
-0.24077 -0.33465701 -0.22266901
-0.24077 -0.300282 -0.235819
-0.24077 -0.26590699 -0.24095
-0.24077 -0.23153199 -0.24247099
-0.24077 -0.197157 -0.243184
-0.24077 -0.162782 -0.243422
-0.24077 -0.128407 -0.24335501
-0.24077 -0.094031997 -0.243608
-0.24077 -0.059657 -0.24421801
-0.24077 -0.025281999 -0.244945
-0.24077 0.0090930499 -0.24562401
-0.24077 0.043467999 -0.24613801
-0.24077 0.077843003 -0.246315
0.17173 -0.40340701 -0.243515
0.20610499 -0.40340701 -0.222781
0.20610499 -0.369032 -0.240933
0.24048001 -0.33465701 -0.22402699
0.24048001 -0.300282 -0.23291899
0.24048001 -0.26590699 -0.237702
0.24048001 -0.23153199 -0.24082799
0.24048001 -0.197157 -0.24301
0.24048001 -0.162782 -0.244784
0.24048001 -0.128407 -0.246253
0.27485499 -0.025281999 -0.21318901
0.27485499 0.0090930499 -0.21374799
0.27485499 0.043467999 -0.214017
0.27485499 0.077843003 -0.21443801
-0.24077 0.112218 -0.24565101
-0.24077 0.146593 -0.242777
-0.24077 0.180968 -0.23308299
-0.206396 0.215343 -0.242818
-0.17202 0.249718 -0.226603
0.27485499 0.112218 -0.214324
0.20610499 0.215343 -0.24603599
0.24048001 0.180968 -0.23784301
0.17173 0.249718 -0.223784
-0.27514601 -0.333891 -0.177733
-0.283766 -0.300282 -0.177733
-0.28819099 -0.26590699 -0.177733
-0.29025799 -0.23153199 -0.177733
-0.29136899 -0.197157 -0.177733
-0.24077 -0.40363899 -0.177733
-0.240968 -0.40340701 -0.177733
-0.206396 -0.419691 -0.177733
-0.17202 -0.41617 -0.177733
-0.13764501 -0.41200399 -0.177733
-0.261426 -0.369032 -0.177733
-0.27489999 -0.33465701 -0.177733
-0.103271 -0.41054299 -0.177733
-0.068895496 -0.410566 -0.177733
-0.034520499 -0.41002899 -0.177733
-0.00014549 -0.40848401 -0.177733
-0.291639 -0.162782 -0.177733
-0.29175499 -0.128407 -0.177733
-0.292483 -0.094031997 -0.177733
-0.29373601 -0.059657 -0.177733
-0.29460499 -0.025281999 -0.177733
-0.29478401 0.0090930499 -0.177733
-0.294873 0.043467999 -0.177733
-0.294857 0.077843003 -0.177733
0.034229498 -0.406892 -0.177733
0.068604499 -0.40580699 -0.177733
0.102979 -0.40595701 -0.177733
0.137354 -0.40834901 -0.177733
0.17173 -0.41336799 -0.177733
0.20610499 -0.419644 -0.177733
0.24048001 -0.412788 -0.177733
0.25104699 -0.40340701 -0.177733
0.26816699 -0.369032 -0.177733
0.27485499 -0.34769899 -0.177733
0.27837899 -0.33465701 -0.177733
0.28585601 -0.300282 -0.177733
0.289924 -0.26590699 -0.177733
0.29227 -0.23153199 -0.177733
0.29392999 -0.197157 -0.177733
0.29513299 -0.162782 -0.177733
0.29613501 -0.128407 -0.177733
0.29734299 -0.094031997 -0.177733
0.29871801 -0.059657 -0.177733
0.29967499 -0.025281999 -0.177733
0.30014199 0.0090930499 -0.177733
0.30069 0.043467999 -0.177733
0.30116901 0.077843003 -0.177733
-0.29389 0.112218 -0.177733
-0.29052901 0.146593 -0.177733
-0.28187099 0.180968 -0.177733
-0.27514601 0.19771001 -0.177733
-0.26364899 0.215343 -0.177733
-0.24077 0.238207 -0.177733
-0.223447 0.249718 -0.177733
-0.206396 0.25733101 -0.177733
-0.17202 0.26944599 -0.177733
-0.13764501 0.27743301 -0.177733
-0.103271 0.28210601 -0.177733
-0.075235799 0.28409299 -0.177733
-0.00014549 0.283584 -0.177733
-0.0107385 0.28409299 -0.177733
-0.068895496 0.28436199 -0.177733
-0.034520499 0.28476799 -0.177733
0.27485499 0.202619 -0.177733
0.26382899 0.215343 -0.177733
0.034229498 0.281396 -0.177733
0.068604499 0.27866399 -0.177733
0.102979 0.27538899 -0.177733
0.137354 0.270776 -0.177733
0.17173 0.26325199 -0.177733
0.20610499 0.25223899 -0.177733
0.24048001 0.234263 -0.177733
0.212725 0.249718 -0.177733
0.30060101 0.112218 -0.177733
0.29748601 0.146593 -0.177733
0.28681901 0.180968 -0.177733
-0.27514601 -0.300282 -0.19255
-0.27514601 -0.26590699 -0.19942901
-0.27514601 -0.23153199 -0.20198201
-0.27514601 -0.197157 -0.203113
-0.24077 -0.40340701 -0.17804401
-0.24077 -0.369032 -0.20468
-0.27514601 -0.162782 -0.20328601
-0.27514601 -0.128407 -0.203189
-0.27514601 -0.094031997 -0.20425101
-0.27514601 -0.059657 -0.20625401
-0.27514601 -0.025281999 -0.207427
-0.27514601 0.0090930499 -0.207563
-0.27514601 0.043467999 -0.207761
-0.27514601 0.077843003 -0.207941
0.24048001 -0.40340701 -0.19102199
0.24048001 -0.369032 -0.21088301
0.27485499 -0.33465701 -0.18332499
0.27485499 -0.300282 -0.194113
0.27485499 -0.26590699 -0.20011801
0.27485499 -0.23153199 -0.20392101
0.27485499 -0.197157 -0.206239
0.27485499 -0.162782 -0.207517
0.27485499 -0.128407 -0.20864999
0.27485499 -0.094031997 -0.210261
0.27485499 -0.059657 -0.211971
-0.27514601 0.112218 -0.20682999
-0.27514601 0.146593 -0.202278
-0.27514601 0.180968 -0.18912999
-0.24077 0.215343 -0.20910101
-0.206396 0.249718 -0.197972
-0.068895496 0.28409299 -0.179195
-0.034520499 0.28409299 -0.181665
0.27485499 0.146593 -0.211132
0.27485499 0.180968 -0.197023
0.24048001 0.215343 -0.209511
0.20610499 0.249718 -0.18673
-0.27514601 -0.381845 -0.14335801
-0.280251 -0.369032 -0.14335801
-0.293291 -0.33465701 -0.14335801
-0.30177501 -0.300282 -0.14335801
-0.30557901 -0.26590699 -0.14335801
-0.30739 -0.23153199 -0.14335801
-0.30847001 -0.197157 -0.14335801
-0.24077 -0.41751501 -0.14335801
-0.26367301 -0.40340701 -0.14335801
-0.206396 -0.417299 -0.14335801
-0.17202 -0.413519 -0.14335801
-0.13764501 -0.413351 -0.14335801
-0.103271 -0.41408899 -0.14335801
-0.068895496 -0.41442999 -0.14335801
-0.034520499 -0.414487 -0.14335801
-0.00014549 -0.41393501 -0.14335801
-0.30914101 -0.162782 -0.14335801
-0.30952001 -0.1402 -0.14335801
-0.30971199 -0.128407 -0.14335801
-0.31015801 -0.094031997 -0.14335801
-0.31066 -0.059657 -0.14335801
-0.31130999 -0.025281999 -0.14335801
-0.31171399 0.0090930499 -0.14335801
-0.31185201 0.043467999 -0.14335801
-0.31177801 0.077843003 -0.14335801
0.034229498 -0.41193101 -0.14335801
0.068604499 -0.40855399 -0.14335801
0.102979 -0.40561399 -0.14335801
0.137354 -0.40528801 -0.14335801
0.17173 -0.408198 -0.14335801
0.20610499 -0.414792 -0.14335801
0.24048001 -0.42027 -0.14335801
0.27102199 -0.40340701 -0.14335801
0.27485499 -0.396635 -0.14335801
0.286542 -0.369032 -0.14335801
0.29859099 -0.33465701 -0.14335801
0.305839 -0.300282 -0.14335801
0.30882701 -0.26590699 -0.14335801
0.30922899 -0.25618401 -0.14335801
0.310031 -0.23153199 -0.14335801
0.31104499 -0.197157 -0.14335801
0.31221399 -0.162782 -0.14335801
0.313315 -0.128407 -0.14335801
0.31424001 -0.094031997 -0.14335801
0.31501299 -0.059657 -0.14335801
0.31560099 -0.025281999 -0.14335801
0.31600901 0.0090930499 -0.14335801
0.31645501 0.043467999 -0.14335801
0.316737 0.077843003 -0.14335801
-0.311014 0.112218 -0.14335801
-0.30952001 0.13691799 -0.14335801
-0.308615 0.146593 -0.14335801
-0.30130601 0.180968 -0.14335801
-0.28231299 0.215343 -0.14335801
-0.27514601 0.224253 -0.14335801
-0.244681 0.249718 -0.14335801
-0.24077 0.251867 -0.14335801
-0.206396 0.26723999 -0.14335801
-0.17202 0.277291 -0.14335801
-0.13764501 0.283584 -0.14335801
-0.13424 0.28409299 -0.14335801
-0.103271 0.288412 -0.14335801
-0.068895496 0.29271999 -0.14335801
-0.034520499 0.29547301 -0.14335801
-0.00014549 0.294539 -0.14335801
0.102979 0.279847 -0.14335801
0.069579497 0.28409299 -0.14335801
0.137354 0.275648 -0.14335801
0.034229498 0.28974301 -0.14335801
0.068604499 0.28423399 -0.14335801
0.17173 0.26944 -0.14335801
0.20610499 0.259965 -0.14335801
0.24048001 0.24701101 -0.14335801
0.234521 0.249718 -0.14335801
0.27485499 0.222844 -0.14335801
0.31613499 0.112218 -0.14335801
0.31364 0.146593 -0.14335801
0.30922899 0.170093 -0.14335801
0.30557701 0.180968 -0.14335801
0.28255999 0.215343 -0.14335801
-0.27514601 -0.369032 -0.154238
-0.27514601 -0.33465701 -0.17729899
-0.30952001 -0.128407 -0.143838
-0.30952001 -0.094031997 -0.144954
-0.30952001 -0.059657 -0.14629599
-0.30952001 -0.025281999 -0.14797001
-0.30952001 0.0090930499 -0.148899
-0.30952001 0.043467999 -0.149203
-0.30952001 0.077843003 -0.149014
0.27485499 -0.369032 -0.16629399
0.30922899 -0.23153199 -0.145372
0.30922899 -0.197157 -0.14800601
0.30922899 -0.162782 -0.15087301
0.30922899 -0.128407 -0.153302
0.30922899 -0.094031997 -0.155387
0.30922899 -0.059657 -0.15751401
0.30922899 -0.025281999 -0.159164
0.30922899 0.0090930499 -0.160023
0.30922899 0.043467999 -0.161037
0.30922899 0.077843003 -0.16192199
-0.30952001 0.112218 -0.147135
-0.27514601 0.215343 -0.157957
-0.24077 0.249718 -0.150507
-0.103271 0.28409299 -0.16707601
-0.00014549 0.28409299 -0.174527
0.27485499 0.215343 -0.159016
0.034229498 0.28409299 -0.16195001
0.068604499 0.28409299 -0.144061
0.30922899 0.112218 -0.160685
0.30922899 0.146593 -0.154618
-0.27514601 -0.40506601 -0.108983
-0.276476 -0.40340701 -0.108983
-0.294615 -0.369032 -0.108983
-0.30602801 -0.33465701 -0.108983
-0.30952001 -0.32036 -0.108983
-0.31319001 -0.300282 -0.108983
-0.31703401 -0.26590699 -0.108983
-0.319067 -0.23153199 -0.108983
-0.320243 -0.197157 -0.108983
-0.24077 -0.419249 -0.108983
-0.206396 -0.415286 -0.108983
-0.17202 -0.41617 -0.108983
-0.13764501 -0.41685599 -0.108983
-0.103271 -0.41501501 -0.108983
-0.068895496 -0.41382799 -0.108983
-0.034520499 -0.41517201 -0.108983
-0.00014549 -0.41674799 -0.108983
-0.32120499 -0.162782 -0.108983
-0.32222199 -0.128407 -0.108983
-0.32276699 -0.094031997 -0.108983
-0.32304001 -0.059657 -0.108983
-0.323515 -0.025281999 -0.108983
-0.32408699 0.0090930499 -0.108983
-0.32449099 0.043467999 -0.108983
-0.324411 0.077843003 -0.108983
0.034229498 -0.41613501 -0.108983
0.068604499 -0.41388601 -0.108983
0.102979 -0.40957099 -0.108983
0.137354 -0.405954 -0.108983
0.17173 -0.40638301 -0.108983
0.20610499 -0.410447 -0.108983
0.24048001 -0.419238 -0.108983
0.27485499 -0.412274 -0.108983
0.28391701 -0.40340701 -0.108983
0.30129501 -0.369032 -0.108983
0.30922899 -0.34325701 -0.108983
0.311432 -0.33465701 -0.108983
0.31826699 -0.300282 -0.108983
0.32124799 -0.26590699 -0.108983
0.322294 -0.23153199 -0.108983
0.32315901 -0.197157 -0.108983
0.32430801 -0.162782 -0.108983
0.32567 -0.128407 -0.108983
0.32678199 -0.094031997 -0.108983
0.327272 -0.059657 -0.108983
0.32769501 -0.025281999 -0.108983
0.328435 0.0090930499 -0.108983
0.329065 0.043467999 -0.108983
0.32911399 0.077843003 -0.108983
-0.323199 0.112218 -0.108983
-0.320301 0.146593 -0.108983
-0.31380099 0.180968 -0.108983
-0.30952001 0.19483 -0.108983
-0.29810101 0.215343 -0.108983
-0.27514601 0.23985501 -0.108983
-0.26162699 0.249718 -0.108983
-0.24077 0.26023 -0.108983
-0.206396 0.273702 -0.108983
-0.17202 0.281921 -0.108983
-0.15974 0.28409299 -0.108983
-0.13764501 0.287972 -0.108983
-0.103271 0.29595 -0.108983
-0.068895496 0.30784401 -0.108983
-0.038883101 0.318468 -0.108983
-0.034520499 0.319765 -0.108983
-0.00014549 0.324689 -0.108983
0.137354 0.27878901 -0.108983
0.109378 0.28409299 -0.108983
0.034229498 0.315512 -0.108983
0.027238401 0.318468 -0.108983
0.068604499 0.297986 -0.108983
0.102979 0.28562301 -0.108983
0.17173 0.27268299 -0.108983
0.20610499 0.26462001 -0.108983
0.27485499 0.234495 -0.108983
0.24951801 0.249718 -0.108983
0.24048001 0.25327399 -0.108983
0.328284 0.112218 -0.108983
0.32554901 0.146593 -0.108983
0.316708 0.180968 -0.108983
0.30922899 0.19801 -0.108983
0.29641601 0.215343 -0.108983
-0.27514601 -0.40340701 -0.113785
-0.30952001 -0.300282 -0.121499
-0.30952001 -0.26590699 -0.13253701
-0.30952001 -0.23153199 -0.13747901
-0.30952001 -0.197157 -0.140442
-0.30952001 -0.162782 -0.14235
0.27485499 -0.40340701 -0.133233
0.30922899 -0.33465701 -0.116013
0.30922899 -0.300282 -0.134951
0.30922899 -0.26590699 -0.14237
-0.30952001 0.146593 -0.14103299
-0.30952001 0.180968 -0.122745
-0.13764501 0.28409299 -0.139659
-0.034520499 0.318468 -0.110235
-0.00014549 0.318468 -0.1136
0.102979 0.28409299 -0.116032
0.24048001 0.249718 -0.131403
0.30922899 0.180968 -0.13383999
-0.27514601 -0.41157401 -0.074607499
-0.28481501 -0.40340701 -0.074607499
-0.30344501 -0.369032 -0.074607499
-0.30952001 -0.35148901 -0.074607499
-0.31474099 -0.33465701 -0.074607499
-0.322997 -0.300282 -0.074607499
-0.32676399 -0.26590699 -0.074607499
-0.32870799 -0.23153199 -0.074607499
-0.32979101 -0.197157 -0.074607499
-0.24077 -0.41709599 -0.074607499
-0.206396 -0.41187 -0.074607499
-0.17202 -0.40979999 -0.074607499
-0.13764501 -0.404419 -0.074607499
-0.131515 -0.40340701 -0.074607499
-0.034520499 -0.40516001 -0.074607499
-0.063627496 -0.40340701 -0.074607499
-0.00014549 -0.408135 -0.074607499
-0.103271 -0.40187901 -0.074607499
-0.068895496 -0.40315899 -0.074607499
-0.33039901 -0.162782 -0.074607499
-0.331191 -0.128407 -0.074607499
-0.33182701 -0.094031997 -0.074607499
-0.33204001 -0.059657 -0.074607499
-0.33226001 -0.025281999 -0.074607499
-0.33287299 0.0090930499 -0.074607499
-0.33356401 0.043467999 -0.074607499
-0.333626 0.077843003 -0.074607499
0.034229498 -0.411933 -0.074607499
0.068604499 -0.41581699 -0.074607499
0.102979 -0.415012 -0.074607499
0.137354 -0.40981799 -0.074607499
0.17173 -0.407341 -0.074607499
0.20610499 -0.40872601 -0.074607499
0.24048001 -0.41659999 -0.074607499
0.27485499 -0.41631499 -0.074607499
0.29356599 -0.40340701 -0.074607499
0.30922899 -0.371815 -0.074607499
0.31020501 -0.369032 -0.074607499
0.32100201 -0.33465701 -0.074607499
0.327492 -0.300282 -0.074607499
0.329952 -0.26590699 -0.074607499
0.33095399 -0.23153199 -0.074607499
0.33177301 -0.197157 -0.074607499
0.332701 -0.162782 -0.074607499
0.333996 -0.128407 -0.074607499
0.33500299 -0.094031997 -0.074607499
0.33512199 -0.059657 -0.074607499
0.33546999 -0.025281999 -0.074607499
0.336577 0.0090930499 -0.074607499
0.337376 0.043467999 -0.074607499
0.33726299 0.077843003 -0.074607499
-0.332468 0.112218 -0.074607499
-0.329761 0.146593 -0.074607499
-0.32335299 0.180968 -0.074607499
-0.30952001 0.21373101 -0.074607499
-0.30846801 0.215343 -0.074607499
-0.27514601 0.24810299 -0.074607499
-0.27263999 0.249718 -0.074607499
-0.24077 0.265706 -0.074607499
-0.206396 0.27757099 -0.074607499
-0.175951 0.28409299 -0.074607499
-0.17202 0.284762 -0.074607499
-0.13764501 0.29226699 -0.074607499
-0.103271 0.307197 -0.074607499
-0.086478002 0.318468 -0.074607499
-0.068895496 0.335058 -0.074607499
-0.056793898 0.35284299 -0.074607499
-0.036245 0.387218 -0.074607499
-0.034520499 0.39072001 -0.074607499
-0.0212925 0.42159301 -0.074607499
-0.0090763597 0.45596799 -0.074607499
-0.00383294 0.490343 -0.074607499
-0.0074042701 0.52471799 -0.074607499
-0.00014549 0.534585 -0.074607499
0.137354 0.28253901 -0.074607499
0.13187701 0.28409299 -0.074607499
0.068604499 0.33379501 -0.074607499
0.059586801 0.35284299 -0.074607499
0.102979 0.29777899 -0.074607499
0.080049701 0.318468 -0.074607499
0.17173 0.27454999 -0.074607499
0.20610499 0.266819 -0.074607499
0.27485499 0.240082 -0.074607499
0.25773799 0.249718 -0.074607499
0.24048001 0.25628099 -0.074607499
0.33636799 0.112218 -0.074607499
0.333747 0.146593 -0.074607499
0.32436001 0.180968 -0.074607499
0.30922899 0.20890801 -0.074607499
0.303945 0.215343 -0.074607499
0.0473506 0.387218 -0.074607499
0.038869102 0.42159301 -0.074607499
0.034229498 0.446082 -0.074607499
0.0321921 0.45596799 -0.074607499
0.034229498 0.48598701 -0.074607499
0.037002299 0.490343 -0.074607499
0.052771799 0.52471799 -0.074607499
0.034229498 0.54417801 -0.074607499
-0.30952001 -0.33465701 -0.095770396
-0.103271 -0.40340701 -0.076937497
-0.068895496 -0.40340701 -0.0750781
0.30922899 -0.369032 -0.0793681
-0.17202 0.28409299 -0.084444001
-0.068895496 0.318468 -0.0924512
-0.034520499 0.35284299 -0.087688103
-0.00014549 0.35284299 -0.0955498
-0.034520499 0.387218 -0.075587898
-0.00014549 0.387218 -0.086274303
-0.00014549 0.42159301 -0.081155099
-0.00014549 0.45596799 -0.077233598
-0.00014549 0.490343 -0.075788803
-0.00014549 0.52471799 -0.079127602
0.034229498 0.318468 -0.106722
0.068604499 0.318468 -0.0856748
0.034229498 0.35284299 -0.088657603
0.034229498 0.387218 -0.080442198
0.034229498 0.42159301 -0.076419599
0.034229498 0.490343 -0.075184003
0.034229498 0.52471799 -0.080734201
-0.27514601 -0.413551 -0.040232498
-0.28989699 -0.40340701 -0.040232498
-0.30841699 -0.369032 -0.040232498
-0.30952001 -0.366254 -0.040232498
-0.321509 -0.33465701 -0.040232498
-0.330165 -0.300282 -0.040232498
-0.33305499 -0.26590699 -0.040232498
-0.334005 -0.23153199 -0.040232498
-0.3346 -0.197157 -0.040232498
-0.24077 -0.41291499 -0.040232498
-0.215286 -0.40340701 -0.040232498
-0.206396 -0.401434 -0.040232498
-0.17202 -0.39032501 -0.040232498
-0.13764501 -0.37672001 -0.040232498
-0.103271 -0.37404299 -0.040232498
-0.068895496 -0.37664399 -0.040232498
-0.034520499 -0.37615699 -0.040232498
-0.00014549 -0.383609 -0.040232498
-0.33494601 -0.162782 -0.040232498
-0.33572701 -0.128407 -0.040232498
-0.336826 -0.094031997 -0.040232498
-0.33745 -0.059657 -0.040232498
-0.33773899 -0.025281999 -0.040232498
-0.338238 0.0090930499 -0.040232498
-0.33879599 0.043467999 -0.040232498
-0.33906299 0.077843003 -0.040232498
0.068604499 -0.41005501 -0.040232498
0.048026901 -0.40340701 -0.040232498
0.102979 -0.416473 -0.040232498
0.137354 -0.414496 -0.040232498
0.034229498 -0.398067 -0.040232498
0.17173 -0.41068399 -0.040232498
0.20610499 -0.40941799 -0.040232498
0.24048001 -0.41456601 -0.040232498
0.27485499 -0.416706 -0.040232498
0.298325 -0.40340701 -0.040232498
0.30922899 -0.38459 -0.040232498
0.315476 -0.369032 -0.040232498
0.326621 -0.33465701 -0.040232498
0.33235499 -0.300282 -0.040232498
0.33445799 -0.26590699 -0.040232498
0.33552399 -0.23153199 -0.040232498
0.33649299 -0.197157 -0.040232498
0.33760199 -0.162782 -0.040232498
0.33896601 -0.128407 -0.040232498
0.33976501 -0.094031997 -0.040232498
0.339526 -0.059657 -0.040232498
0.33965001 -0.025281999 -0.040232498
0.34072199 0.0090930499 -0.040232498
0.34144399 0.043467999 -0.040232498
0.341169 0.077843003 -0.040232498
-0.33857301 0.112218 -0.040232498
-0.33645299 0.146593 -0.040232498
-0.33013701 0.180968 -0.040232498
-0.314091 0.215343 -0.040232498
-0.30952001 0.221835 -0.040232498
-0.27879 0.249718 -0.040232498
-0.27514601 0.25189099 -0.040232498
-0.24077 0.26869899 -0.040232498
-0.206396 0.27953699 -0.040232498
-0.18447 0.28409299 -0.040232498
-0.17202 0.28631601 -0.040232498
-0.13764501 0.29633 -0.040232498
-0.104824 0.318468 -0.040232498
-0.103271 0.32012001 -0.040232498
-0.082532696 0.35284299 -0.040232498
-0.068895496 0.38319999 -0.040232498
-0.0671762 0.387218 -0.040232498
-0.053955801 0.42159301 -0.040232498
-0.044094201 0.45596799 -0.040232498
-0.034520499 0.46375301 -0.040232498
-0.00014549 0.48568401 -0.040232498
0.102979 0.31615701 -0.040232498
0.10143 0.318468 -0.040232498
0.137354 0.286966 -0.040232498
0.085308701 0.35284299 -0.040232498
0.17173 0.27604201 -0.040232498
0.14411099 0.28409299 -0.040232498
0.20610499 0.267887 -0.040232498
0.27485499 0.24277601 -0.040232498
0.261718 0.249718 -0.040232498
0.24048001 0.257631 -0.040232498
0.34034899 0.112218 -0.040232498
0.33823901 0.146593 -0.040232498
0.32941899 0.180968 -0.040232498
0.30922899 0.21413299 -0.040232498
0.308171 0.215343 -0.040232498
0.077707 0.387218 -0.040232498
0.074016601 0.42159301 -0.040232498
0.0042518401 0.490343 -0.040232498
0.073460601 0.45596799 -0.040232498
0.077782601 0.490343 -0.040232498
0.027942499 0.52471799 -0.040232498
0.034229498 0.53622401 -0.040232498
0.068604499 0.54596102 -0.040232498
0.0812997 0.52471799 -0.040232498
-0.206396 -0.40340701 -0.044784799
-0.17202 -0.40340701 -0.060703501
-0.13764501 -0.40340701 -0.073175602
-0.034520499 -0.40340701 -0.071375698
-0.00014549 -0.40340701 -0.0648719
0.034229498 -0.40340701 -0.0499123
-0.30952001 0.215343 -0.069677398
-0.27514601 0.249718 -0.063040301
-0.103271 0.318468 -0.0449939
-0.068895496 0.35284299 -0.062571302
-0.034520499 0.42159301 -0.065887801
-0.034520499 0.45596799 -0.056422699
-0.00014549 0.490343 -0.042891402
-0.00014549 0.52471799 -0.059187401
0.137354 0.28409299 -0.062830798
0.068604499 0.35284299 -0.066226102
0.068604499 0.387218 -0.0558661
0.068604499 0.42159301 -0.050011098
0.034229498 0.45596799 -0.073987097
0.068604499 0.45596799 -0.048834
0.068604499 0.490343 -0.0550096
0.068604499 0.52471799 -0.0623147
-0.27514601 -0.41171101 -0.00585753
-0.28982899 -0.40340701 -0.00585753
-0.30952001 -0.369946 -0.00585753
-0.30991301 -0.369032 -0.00585753
-0.32366499 -0.33465701 -0.00585753
-0.33188099 -0.300282 -0.00585753
-0.33440399 -0.26590699 -0.00585753
-0.33505401 -0.23153199 -0.00585753
-0.33563101 -0.197157 -0.00585753
-0.24077 -0.40759501 -0.00585753
-0.23344 -0.40340701 -0.00585753
-0.206396 -0.388675 -0.00585753
-0.17202 -0.36974701 -0.00585753
-0.17072999 -0.369032 -0.00585753
-0.13764501 -0.356103 -0.00585753
-0.103271 -0.35068601 -0.00585753
-0.068895496 -0.34746799 -0.00585753
-0.034520499 -0.337919 -0.00585753
-0.00014549 -0.34143299 -0.00585753
-0.33609799 -0.162782 -0.00585753
-0.33710599 -0.128407 -0.00585753
-0.338837 -0.094031997 -0.00585753
-0.34001201 -0.059657 -0.00585753
-0.34041101 -0.025281999 -0.00585753
-0.34073499 0.0090930499 -0.00585753
-0.34107801 0.043467999 -0.00585753
-0.341387 0.077843003 -0.00585753
0.102979 -0.41079301 -0.00585753
0.080977701 -0.40340701 -0.00585753
0.137354 -0.414913 -0.00585753
0.034229498 -0.36926401 -0.00585753
0.033972599 -0.369032 -0.00585753
0.068604499 -0.39649099 -0.00585753
0.17173 -0.413219 -0.00585753
0.20610499 -0.410887 -0.00585753
0.24048001 -0.413504 -0.00585753
0.27485499 -0.415149 -0.00585753
0.298089 -0.40340701 -0.00585753
0.30922899 -0.386356 -0.00585753
0.31684199 -0.369032 -0.00585753
0.328246 -0.33465701 -0.00585753
0.333655 -0.300282 -0.00585753
0.335545 -0.26590699 -0.00585753
0.33653101 -0.23153199 -0.00585753
0.33767799 -0.197157 -0.00585753
0.33921301 -0.162782 -0.00585753
0.34073699 -0.128407 -0.00585753
0.341326 -0.094031997 -0.00585753
0.340866 -0.059657 -0.00585753
0.34080499 -0.025281999 -0.00585753
0.34177899 0.0090930499 -0.00585753
0.34254 0.043467999 -0.00585753
0.342246 0.077843003 -0.00585753
-0.341102 0.112218 -0.00585753
-0.33904499 0.146593 -0.00585753
-0.33242401 0.180968 -0.00585753
-0.31569299 0.215343 -0.00585753
-0.30952001 0.22394501 -0.00585753
-0.28103399 0.249718 -0.00585753
-0.27514601 0.25321901 -0.00585753
-0.24077 0.26963899 -0.00585753
-0.206396 0.27968201 -0.00585753
-0.184063 0.28409299 -0.00585753
-0.17202 0.28626099 -0.00585753
-0.13764501 0.29767099 -0.00585753
-0.109619 0.318468 -0.00585753
-0.103271 0.326554 -0.00585753
-0.090808801 0.35284299 -0.00585753
-0.079298198 0.387218 -0.00585753
-0.071418703 0.42159301 -0.00585753
-0.069220997 0.45596799 -0.00585753
-0.073096603 0.490343 -0.00585753
-0.080298498 0.52471799 -0.00585753
-0.068895496 0.53883302 -0.00585753
-0.034520499 0.49956101 -0.00585753
-0.050024599 0.52471799 -0.00585753
-0.00014549 0.49562001 -0.00585753
0.137354 0.288903 -0.00585753
0.106424 0.318468 -0.00585753
0.102979 0.32447901 -0.00585753
0.092427701 0.35284299 -0.00585753
0.17173 0.27654901 -0.00585753
0.147236 0.28409299 -0.00585753
0.20610499 0.26803201 -0.00585753
0.27485499 0.24333601 -0.00585753
0.26232699 0.249718 -0.00585753
0.24048001 0.257741 -0.00585753
0.341414 0.112218 -0.00585753
0.339596 0.146593 -0.00585753
0.331222 0.180968 -0.00585753
0.30950201 0.215343 -0.00585753
0.30922899 0.215644 -0.00585753
0.085313603 0.387218 -0.00585753
0.081331402 0.42159301 -0.00585753
0.080818802 0.45596799 -0.00585753
0.084683098 0.490343 -0.00585753
0.032558199 0.52471799 -0.00585753
0.034229498 0.52698803 -0.00585753
0.068604499 0.54509097 -0.00585753
0.085629404 0.52471799 -0.00585753
-0.30952001 -0.369032 -0.0240074
-0.13764501 -0.369032 -0.031708099
-0.103271 -0.369032 -0.034896702
-0.068895496 -0.369032 -0.033358499
-0.034520499 -0.369032 -0.034789599
-0.00014549 -0.369032 -0.0279823
0.068604499 -0.40340701 -0.0203755
-0.068895496 0.387218 -0.036881901
-0.068895496 0.42159301 -0.013441
-0.068895496 0.45596799 -0.00675064
-0.068895496 0.490343 -0.0143383
-0.034520499 0.490343 -0.0101799
-0.00014549 0.490343 -0.0099028302
-0.068895496 0.52471799 -0.023335099
0.102979 0.318468 -0.0352831
0.30922899 0.215343 -0.0261412
-0.27514601 -0.40603799 0.0285175
-0.28182399 -0.40340701 0.0285175
-0.308772 -0.369032 0.0285175
-0.30952001 -0.36733899 0.0285175
-0.32143599 -0.33465701 0.0285175
-0.328758 -0.300282 0.0285175
-0.33160099 -0.26590699 0.0285175
-0.33293101 -0.23153199 0.0285175
-0.33423299 -0.197157 0.0285175
-0.24077 -0.40376201 0.0285175
-0.240096 -0.40340701 0.0285175
-0.206396 -0.38423601 0.0285175
-0.17945699 -0.369032 0.0285175
-0.17202 -0.36468601 0.0285175
-0.13764501 -0.346468 0.0285175
-0.103271 -0.337767 0.0285175
-0.068895496 -0.33542499 0.0285175
-0.063552096 -0.33465701 0.0285175
-0.034520499 -0.32270899 0.0285175
-0.00014549 -0.310179 0.0285175
-0.33510599 -0.162782 0.0285175
-0.336162 -0.128407 0.0285175
-0.33779001 -0.094031997 0.0285175
-0.338898 -0.059657 0.0285175
-0.339304 -0.025281999 0.0285175
-0.33973101 0.0090930499 0.0285175
-0.340166 0.043467999 0.0285175
-0.34040701 0.077843003 0.0285175
0.102979 -0.40440401 0.0285175
0.100857 -0.40340701 0.0285175
0.137354 -0.413288 0.0285175
0.068604499 -0.37752199 0.0285175
0.061636899 -0.369032 0.0285175
0.034229498 -0.33508199 0.0285175
0.033936601 -0.33465701 0.0285175
0.17173 -0.41383901 0.0285175
0.20610499 -0.411347 0.0285175
0.24048001 -0.412276 0.0285175
0.27485499 -0.412191 0.0285175
0.293818 -0.40340701 0.0285175
0.30922899 -0.38150799 0.0285175
0.31488201 -0.369032 0.0285175
0.32676101 -0.33465701 0.0285175
0.33218199 -0.300282 0.0285175
0.33389699 -0.26590699 0.0285175
0.33445701 -0.23153199 0.0285175
0.335228 -0.197157 0.0285175
0.33691499 -0.162782 0.0285175
0.33864701 -0.128407 0.0285175
0.33908701 -0.094031997 0.0285175
0.33849499 -0.059657 0.0285175
0.338579 -0.025281999 0.0285175
0.339843 0.0090930499 0.0285175
0.340913 0.043467999 0.0285175
0.34080499 0.077843003 0.0285175
-0.33999601 0.112218 0.0285175
-0.33769 0.146593 0.0285175
-0.33045501 0.180968 0.0285175
-0.313613 0.215343 0.0285175
-0.30952001 0.221229 0.0285175
-0.279118 0.249718 0.0285175
-0.27514601 0.25215599 0.0285175
-0.24077 0.26828799 0.0285175
-0.206396 0.27759001 0.0285175
-0.17202 0.283793 0.0285175
-0.170284 0.28409299 0.0285175
-0.13764501 0.293513 0.0285175
-0.103271 0.31802201 0.0285175
-0.102873 0.318468 0.0285175
-0.082515702 0.35284299 0.0285175
-0.072677799 0.387218 0.0285175
-0.068895496 0.41033599 0.0285175
-0.067797303 0.42159301 0.0285175
-0.068895496 0.48218501 0.0285175
-0.070128202 0.490343 0.0285175
-0.066891998 0.45596799 0.0285175
-0.073427297 0.52471799 0.0285175
-0.068895496 0.53931201 0.0285175
-0.034520499 0.54227799 0.0285175
-0.00014549 0.53360099 0.0285175
0.102979 0.31272799 0.0285175
0.099033199 0.318468 0.0285175
0.137354 0.28560299 0.0285175
0.082364902 0.35284299 0.0285175
0.17173 0.27510801 0.0285175
0.141102 0.28409299 0.0285175
0.20610499 0.26660299 0.0285175
0.27485499 0.240235 0.0285175
0.25693101 0.249718 0.0285175
0.24048001 0.255835 0.0285175
0.33991 0.112218 0.0285175
0.33772701 0.146593 0.0285175
0.328376 0.180968 0.0285175
0.30922899 0.21174 0.0285175
0.30593601 0.215343 0.0285175
0.074303001 0.387218 0.0285175
0.070183598 0.42159301 0.0285175
0.0699379 0.45596799 0.0285175
0.073528402 0.490343 0.0285175
0.034229498 0.54356301 0.0285175
0.068604499 0.537108 0.0285175
0.073663503 0.52471799 0.0285175
-0.30952001 -0.369032 0.0133722
-0.17202 -0.369032 -0.00274086
-0.034520499 -0.33465701 -0.0024508799
-0.00014549 -0.33465701 -0.0018547199
0.034229498 -0.369032 -0.0056272699
-0.17202 0.28409299 0.0257394
-0.103271 0.318468 0.027465699
-0.068895496 0.42159301 0.0252463
-0.068895496 0.45596799 0.0217357
-0.034520499 0.52471799 0.0119795
-0.00014549 0.52471799 0.020785499
0.102979 0.318468 0.017096
0.30922899 0.215343 0.00115347
-0.27514601 -0.40023199 0.062892497
-0.30523899 -0.369032 0.062892497
-0.30952001 -0.359025 0.062892497
-0.316488 -0.33465701 0.062892497
-0.32250899 -0.300282 0.062892497
-0.32541099 -0.26590699 0.062892497
-0.327021 -0.23153199 0.062892497
-0.32875699 -0.197157 0.062892497
-0.24077 -0.40314001 0.062892497
-0.206396 -0.38734099 0.062892497
-0.173549 -0.369032 0.062892497
-0.17202 -0.36808199 0.062892497
-0.13764501 -0.34422401 0.062892497
-0.103271 -0.33469999 0.062892497
-0.068895496 -0.338025 0.062892497
-0.047802199 -0.33465701 0.062892497
-0.13764501 -0.26268399 0.062892497
-0.145374 -0.23153199 0.062892497
-0.1476 -0.197157 0.062892497
-0.034520499 -0.32933101 0.062892497
-0.00014549 -0.313113 0.062892497
-0.11259 -0.23153199 0.062892497
-0.119164 -0.197157 0.062892497
-0.330199 -0.162782 0.062892497
-0.33130199 -0.128407 0.062892497
-0.33220801 -0.094031997 0.062892497
-0.33280301 -0.059657 0.062892497
-0.33339599 -0.025281999 0.062892497
-0.33436099 0.0090930499 0.062892497
-0.33518001 0.043467999 0.062892497
-0.335509 0.077843003 0.062892497
-0.13764501 -0.17834 0.062892497
0.137354 -0.41348699 0.062892497
0.104277 -0.40340701 0.062892497
0.068604499 -0.369075 0.062892497
0.068575397 -0.369032 0.062892497
0.042653002 -0.33465701 0.062892497
0.102979 -0.40265399 0.062892497
0.17173 -0.414352 0.062892497
0.20610499 -0.410101 0.062892497
0.24048001 -0.41061699 0.062892497
0.27485499 -0.40975401 0.062892497
0.034229498 -0.32615501 0.062892497
0.28832 -0.40340701 0.062892497
0.30922899 -0.37209401 0.062892497
0.31048599 -0.369032 0.062892497
0.32192001 -0.33465701 0.062892497
0.327692 -0.300282 0.062892497
0.32936701 -0.26590699 0.062892497
0.329184 -0.23153199 0.062892497
0.32906201 -0.197157 0.062892497
0.330549 -0.162782 0.062892497
0.332661 -0.128407 0.062892497
0.33332601 -0.094031997 0.062892497
0.33281699 -0.059657 0.062892497
0.33322701 -0.025281999 0.062892497
0.33494201 0.0090930499 0.062892497
0.336357 0.043467999 0.062892497
0.33638901 0.077843003 0.062892497
-0.33525199 0.112218 0.062892497
-0.33289501 0.146593 0.062892497
-0.32519701 0.180968 0.062892497
-0.30952001 0.21467499 0.062892497
-0.309082 0.215343 0.062892497
-0.27514601 0.248988 0.062892497
-0.27400401 0.249718 0.062892497
-0.24077 0.26501799 0.062892497
-0.206396 0.27399099 0.062892497
-0.17202 0.27976099 0.062892497
-0.14773799 0.28409299 0.062892497
-0.13764501 0.28637901 0.062892497
-0.103271 0.300414 0.062892497
-0.079596996 0.318468 0.062892497
-0.068895496 0.33015701 0.062892497
-0.056281202 0.35284299 0.062892497
-0.044410899 0.387218 0.062892497
-0.037688501 0.42159301 0.062892497
-0.036659598 0.45596799 0.062892497
-0.042531699 0.490343 0.062892497
-0.045635499 0.52471799 0.062892497
-0.034520499 0.54003298 0.062892497
-0.00014549 0.54567498 0.062892497
0.137354 0.28047001 0.062892497
0.125039 0.28409299 0.062892497
0.068604499 0.32628301 0.062892497
0.0529093 0.35284299 0.062892497
0.102979 0.29453799 0.062892497
0.075237297 0.318468 0.062892497
0.17173 0.27226001 0.062892497
0.20610499 0.26361001 0.062892497
0.27485499 0.233551 0.062892497
0.246408 0.249718 0.062892497
0.24048001 0.252027 0.062892497
0.33526301 0.112218 0.062892497
0.33207801 0.146593 0.062892497
0.32109401 0.180968 0.062892497
0.30922899 0.20197999 0.062892497
0.29750499 0.215343 0.062892497
0.040350299 0.387218 0.062892497
0.034517899 0.42159301 0.062892497
0.035138499 0.45596799 0.062892497
0.0423746 0.490343 0.062892497
0.043278102 0.52471799 0.062892497
0.034229498 0.53687298 0.062892497
-0.27514601 -0.40340701 0.043370102
-0.24077 -0.40340701 0.034376599
-0.13764501 -0.23153199 0.040225301
-0.13764501 -0.197157 0.041291501
0.102979 -0.40340701 0.036732402
0.034229498 -0.33465701 0.029036
-0.30952001 0.215343 0.0601357
-0.27514601 0.249718 0.056471199
-0.068895496 0.35284299 0.051123299
-0.068895496 0.387218 0.037068099
-0.068895496 0.490343 0.032262001
-0.068895496 0.52471799 0.0394875
0.137354 0.28409299 0.038218498
0.068604499 0.35284299 0.049099099
0.068604499 0.387218 0.0377515
0.068604499 0.42159301 0.031196499
0.068604499 0.45596799 0.0308645
0.068604499 0.490343 0.037287399
0.068604499 0.52471799 0.0380328
-0.27514601 -0.391343 0.097267397
-0.29642299 -0.369032 0.097267397
-0.30886099 -0.33465701 0.097267397
-0.30952001 -0.330497 0.097267397
-0.31344101 -0.300282 0.097267397
-0.31573999 -0.26590699 0.097267397
-0.31668299 -0.23153199 0.097267397
-0.31779099 -0.197157 0.097267397
-0.24077 -0.40258601 0.097267397
-0.206396 -0.394851 0.097267397
-0.17202 -0.38003701 0.097267397
-0.151586 -0.369032 0.097267397
-0.13764501 -0.36192101 0.097267397
-0.103271 -0.34993699 0.097267397
-0.068895496 -0.34848899 0.097267397
-0.034520499 -0.34227601 0.097267397
-0.0094878096 -0.33465701 0.097267397
-0.00014549 -0.332349 0.097267397
-0.31918699 -0.162782 0.097267397
-0.32030201 -0.128407 0.097267397
-0.320988 -0.094031997 0.097267397
-0.32164899 -0.059657 0.097267397
-0.322653 -0.025281999 0.097267397
-0.32401299 0.0090930499 0.097267397
-0.32497299 0.043467999 0.097267397
-0.32532299 0.077843003 0.097267397
0.102979 -0.40492901 0.097267397
0.099926203 -0.40340701 0.097267397
0.137354 -0.41422799 0.097267397
0.068604499 -0.37816 0.097267397
0.060777102 -0.369032 0.097267397
0.034229498 -0.34375399 0.097267397
0.019630199 -0.33465701 0.097267397
0.17173 -0.414294 0.097267397
0.20610499 -0.40864199 0.097267397
0.24048001 -0.40939599 0.097267397
0.27485499 -0.40481499 0.097267397
0.27728701 -0.40340701 0.097267397
0.30280101 -0.369032 0.097267397
0.30922899 -0.35015401 0.097267397
0.31301799 -0.33465701 0.097267397
0.318434 -0.300282 0.097267397
0.32005101 -0.26590699 0.097267397
0.319464 -0.23153199 0.097267397
0.31886899 -0.197157 0.097267397
0.320353 -0.162782 0.097267397
0.32303599 -0.128407 0.097267397
0.32433799 -0.094031997 0.097267397
0.324029 -0.059657 0.097267397
0.324314 -0.025281999 0.097267397
0.32597101 0.0090930499 0.097267397
0.32745701 0.043467999 0.097267397
0.32754299 0.077843003 0.097267397
-0.325405 0.112218 0.097267397
-0.323497 0.146593 0.097267397
-0.31640199 0.180968 0.097267397
-0.30952001 0.20039301 0.097267397
-0.30092299 0.215343 0.097267397
-0.27514601 0.242724 0.097267397
-0.26488 0.249718 0.097267397
-0.24077 0.26025701 0.097267397
-0.206396 0.269988 0.097267397
-0.17202 0.27581799 0.097267397
-0.13764501 0.28051999 0.097267397
-0.114938 0.28409299 0.097267397
-0.103271 0.28642201 0.097267397
-0.068895496 0.29631701 0.097267397
-0.034520499 0.308451 0.097267397
-0.00014549 0.313806 0.097267397
0.102979 0.28363299 0.097267397
0.10112 0.28409299 0.097267397
0.137354 0.27625 0.097267397
0.034229498 0.30744201 0.097267397
0.068604499 0.29425201 0.097267397
0.17173 0.26894599 0.097267397
0.20610499 0.25957599 0.097267397
0.24048001 0.247169 0.097267397
0.234477 0.249718 0.097267397
0.27485499 0.225209 0.097267397
0.326262 0.112218 0.097267397
0.3224 0.146593 0.097267397
0.31158 0.180968 0.097267397
0.30922899 0.185863 0.097267397
0.28644401 0.215343 0.097267397
-0.30952001 -0.33465701 0.094793402
-0.17202 -0.369032 0.067005701
-0.034520499 -0.33465701 0.077634402
-0.13764501 -0.23153199 0.088279597
-0.13764501 -0.197157 0.0935091
0.102979 -0.40340701 0.076632001
0.034229498 -0.33465701 0.083657101
0.30922899 -0.369032 0.070493802
-0.13764501 0.28409299 0.074654803
-0.068895496 0.318468 0.0720075
-0.034520499 0.318468 0.0899202
-0.00014549 0.318468 0.094334602
-0.034520499 0.35284299 0.074102499
-0.00014549 0.35284299 0.0803013
-0.034520499 0.387218 0.067669101
-0.00014549 0.387218 0.074795097
-0.034520499 0.42159301 0.064408801
-0.00014549 0.42159301 0.072267197
-0.034520499 0.45596799 0.0639138
-0.00014549 0.45596799 0.072148398
-0.034520499 0.490343 0.066767298
-0.00014549 0.490343 0.075408503
-0.034520499 0.52471799 0.067983702
-0.00014549 0.52471799 0.076589398
0.102979 0.28409299 0.095159903
0.034229498 0.318468 0.088873997
0.068604499 0.318468 0.068930402
0.034229498 0.35284299 0.072354898
0.24048001 0.249718 0.079959899
0.034229498 0.387218 0.065879002
0.034229498 0.42159301 0.063040197
0.034229498 0.45596799 0.0633609
0.034229498 0.490343 0.067110799
0.034229498 0.52471799 0.067450099
-0.27514601 -0.37381899 0.131642
-0.27884901 -0.369032 0.131642
-0.29453701 -0.33465701 0.131642
-0.30032301 -0.300282 0.131642
-0.302672 -0.26590699 0.131642
-0.303233 -0.23153199 0.131642
-0.30368301 -0.197157 0.131642
-0.24077 -0.39783299 0.131642
-0.206396 -0.40157101 0.131642
-0.17202 -0.39478701 0.131642
-0.13764501 -0.38443601 0.131642
-0.103271 -0.375411 0.131642
-0.068895496 -0.369142 0.131642
-0.068176597 -0.369032 0.131642
-0.034520499 -0.36309999 0.131642
-0.00014549 -0.36126599 0.131642
-0.30462101 -0.162782 0.131642
-0.30574599 -0.128407 0.131642
-0.30692801 -0.094031997 0.131642
-0.30826601 -0.059657 0.131642
-0.30952001 -0.0260906 0.131642
-0.309549 -0.025281999 0.131642
-0.31062001 0.0090930499 0.131642
-0.31122401 0.043467999 0.131642
-0.31139901 0.077843003 0.131642
0.102979 -0.40912801 0.131642
0.084932998 -0.40340701 0.131642
0.137354 -0.414469 0.131642
0.034229498 -0.37354299 0.131642
0.026010901 -0.369032 0.131642
0.068604499 -0.395522 0.131642
0.17173 -0.41336799 0.131642
0.20610499 -0.40862101 0.131642
0.24048001 -0.40746999 0.131642
0.26087099 -0.40340701 0.131642
0.27485499 -0.39146399 0.131642
0.28865901 -0.369032 0.131642
0.30063599 -0.33465701 0.131642
0.30541 -0.300282 0.131642
0.30674899 -0.26590699 0.131642
0.30636999 -0.23153199 0.131642
0.30592501 -0.197157 0.131642
0.307533 -0.162782 0.131642
0.30922899 -0.14196099 0.131642
0.31029099 -0.128407 0.131642
0.31175601 -0.094031997 0.131642
0.31150201 -0.059657 0.131642
0.31158301 -0.025281999 0.131642
0.31276599 0.0090930499 0.131642
0.31386799 0.043467999 0.131642
0.31395999 0.077843003 0.131642
-0.31139001 0.112218 0.131642
-0.30994701 0.146593 0.131642
-0.30952001 0.151255 0.131642
-0.303758 0.180968 0.131642
-0.28606999 0.215343 0.131642
-0.27514601 0.228911 0.131642
-0.24778999 0.249718 0.131642
-0.24077 0.25290701 0.131642
-0.206396 0.26460901 0.131642
-0.17202 0.27154699 0.131642
-0.13764501 0.275868 0.131642
-0.103271 0.27907699 0.131642
-0.068895496 0.282177 0.131642
-0.046590101 0.28409299 0.131642
-0.034520499 0.284998 0.131642
-0.00014549 0.286367 0.131642
0.27485499 0.213983 0.131642
0.27344501 0.215343 0.131642
0.068604499 0.28197801 0.131642
0.0481534 0.28409299 0.131642
0.102979 0.27755699 0.131642
0.137354 0.271887 0.131642
0.034229498 0.28521201 0.131642
0.17173 0.26403701 0.131642
0.20610499 0.253923 0.131642
0.24048001 0.239419 0.131642
0.21856 0.249718 0.131642
0.31282201 0.112218 0.131642
0.30957201 0.146593 0.131642
0.30922899 0.148968 0.131642
0.298904 0.180968 0.131642
-0.30952001 -0.300282 0.109926
-0.30952001 -0.26590699 0.115698
-0.30952001 -0.23153199 0.117168
-0.30952001 -0.197157 0.118598
-0.13764501 -0.369032 0.108364
-0.103271 -0.369032 0.123164
-0.068895496 -0.369032 0.13149001
-0.00014549 -0.33465701 0.100782
-0.30952001 -0.162782 0.120918
-0.30952001 -0.128407 0.123326
-0.30952001 -0.094031997 0.125673
-0.30952001 -0.059657 0.128567
0.034229498 -0.369032 0.126689
0.27485499 -0.40340701 0.102689
0.30922899 -0.33465701 0.109424
0.30922899 -0.300282 0.122529
0.30922899 -0.26590699 0.125825
0.30922899 -0.23153199 0.124852
0.30922899 -0.197157 0.123728
0.30922899 -0.162782 0.127542
-0.30952001 0.180968 0.118053
-0.103271 0.28409299 0.106143
-0.068895496 0.28409299 0.124338
0.27485499 0.215343 0.12835699
0.068604499 0.28409299 0.122306
0.30922899 0.180968 0.105194
-0.27514601 -0.32853299 0.166017
-0.27923101 -0.300282 0.166017
-0.28181499 -0.26590699 0.166017
-0.28285199 -0.23153199 0.166017
-0.28365299 -0.197157 0.166017
-0.17202 -0.40351301 0.166017
-0.1974 -0.40340701 0.166017
-0.171 -0.40340701 0.166017
-0.24077 -0.385407 0.166017
-0.25824401 -0.369032 0.166017
-0.206396 -0.40203401 0.166017
-0.27399099 -0.33465701 0.166017
-0.13764501 -0.400013 0.166017
-0.103271 -0.39670601 0.166017
-0.068895496 -0.39390901 0.166017
-0.034520499 -0.39082399 0.166017
-0.00014549 -0.392205 0.166017
-0.28463399 -0.162782 0.166017
-0.285869 -0.128407 0.166017
-0.28767401 -0.094031997 0.166017
-0.289992 -0.059657 0.166017
-0.291913 -0.025281999 0.166017
-0.29299301 0.0090930499 0.166017
-0.293466 0.043467999 0.166017
-0.293562 0.077843003 0.166017
0.068604499 -0.40918201 0.166017
0.045032799 -0.40340701 0.166017
0.102979 -0.41449299 0.166017
0.137354 -0.41538799 0.166017
0.034229498 -0.400361 0.166017
0.17173 -0.41249099 0.166017
0.20610499 -0.40912601 0.166017
0.237067 -0.40340701 0.166017
0.24048001 -0.40213999 0.166017
0.27173099 -0.369032 0.166017
0.27485499 -0.361067 0.166017
0.28198299 -0.33465701 0.166017
0.28677899 -0.300282 0.166017
0.288335 -0.26590699 0.166017
0.28789699 -0.23153199 0.166017
0.287211 -0.197157 0.166017
0.288831 -0.162782 0.166017
0.29206201 -0.128407 0.166017
0.29367399 -0.094031997 0.166017
0.29328901 -0.059657 0.166017
0.293578 -0.025281999 0.166017
0.29511401 0.0090930499 0.166017
0.29642999 0.043467999 0.166017
0.29627901 0.077843003 0.166017
-0.293244 0.112218 0.166017
-0.29101801 0.146593 0.166017
-0.28371799 0.180968 0.166017
-0.27514601 0.202604 0.166017
-0.26662999 0.215343 0.166017
-0.24077 0.239861 0.166017
-0.223827 0.249718 0.166017
-0.206396 0.25622499 0.166017
-0.17202 0.265118 0.166017
-0.13764501 0.270262 0.166017
-0.103271 0.273406 0.166017
-0.068895496 0.27525899 0.166017
-0.034520499 0.27644601 0.166017
-0.00014549 0.27739599 0.166017
0.27485499 0.188934 0.166017
0.25263599 0.215343 0.166017
0.034229498 0.27754399 0.166017
0.068604499 0.27590099 0.166017
0.102979 0.271799 0.166017
0.137354 0.26493299 0.166017
0.20610499 0.24463201 0.166017
0.192293 0.249718 0.166017
0.17173 0.255889 0.166017
0.24048001 0.22464 0.166017
0.29429299 0.112218 0.166017
0.29005399 0.146593 0.166017
0.27889001 0.180968 0.166017
-0.27514601 -0.369032 0.13864
-0.27514601 -0.33465701 0.164113
-0.17202 -0.40340701 0.16528501
-0.034520499 -0.369032 0.139468
-0.00014549 -0.369032 0.139992
-0.30952001 -0.025281999 0.131714
-0.30952001 0.0090930499 0.13432699
-0.30952001 0.043467999 0.1357
-0.30952001 0.077843003 0.136075
0.068604499 -0.40340701 0.149553
0.24048001 -0.40340701 0.160109
0.27485499 -0.369032 0.159732
0.30922899 -0.128407 0.134224
0.30922899 -0.094031997 0.137677
0.30922899 -0.059657 0.137012
0.30922899 -0.025281999 0.13721301
0.30922899 0.0090930499 0.139908
0.30922899 0.043467999 0.14228401
0.30922899 0.077843003 0.14246
-0.30952001 0.112218 0.13596
-0.30952001 0.146593 0.132614
-0.27514601 0.215343 0.152503
-0.24077 0.249718 0.14280701
-0.034520499 0.28409299 0.134288
-0.00014549 0.28409299 0.137876
0.034229498 0.28409299 0.13535
0.20610499 0.249718 0.149987
0.30922899 0.112218 0.139854
0.30922899 0.146593 0.132451
-0.13764501 -0.405247 0.20039199
-0.17032699 -0.40340701 0.20039199
-0.206396 -0.39043701 0.20039199
-0.231002 -0.369032 0.20039199
-0.24077 -0.35369301 0.20039199
-0.247945 -0.33465701 0.20039199
-0.17202 -0.40318501 0.20039199
-0.103271 -0.40534899 0.20039199
-0.068895496 -0.405496 0.20039199
-0.034520499 -0.405085 0.20039199
-0.00014549 -0.40706801 0.20039199
-0.255824 -0.300282 0.20039199
-0.259334 -0.26590699 0.20039199
-0.26074401 -0.23153199 0.20039199
-0.26198301 -0.197157 0.20039199
-0.26299599 -0.162782 0.20039199
-0.263796 -0.128407 0.20039199
-0.26534399 -0.094031997 0.20039199
-0.267708 -0.059657 0.20039199
-0.26956999 -0.025281999 0.20039199
-0.27040899 0.0090930499 0.20039199
-0.27064601 0.043467999 0.20039199
-0.27060199 0.077843003 0.20039199
0.034229498 -0.41248801 0.20039199
0.068604499 -0.417478 0.20039199
0.102979 -0.41847399 0.20039199
0.137354 -0.41587299 0.20039199
0.17173 -0.410532 0.20039199
0.20610499 -0.40361699 0.20039199
0.207009 -0.40340701 0.20039199
0.24048001 -0.38113499 0.20039199
0.24765299 -0.369032 0.20039199
0.26024199 -0.33465701 0.20039199
0.265558 -0.300282 0.20039199
0.26727301 -0.26590699 0.20039199
0.26683801 -0.23153199 0.20039199
0.265775 -0.197157 0.20039199
0.26664701 -0.162782 0.20039199
0.269059 -0.128407 0.20039199
0.27028 -0.094031997 0.20039199
0.27006599 -0.059657 0.20039199
0.27053499 -0.025281999 0.20039199
0.27204901 0.0090930499 0.20039199
0.27320999 0.043467999 0.20039199
0.27268299 0.077843003 0.20039199
-0.27016601 0.112218 0.20039199
-0.26781201 0.146593 0.20039199
